# .PCD v.7 - Point Cloud Data file format
FIELDS x y z rgb imX imY
SIZE 4 4 4 4 4 4
TYPE F F F F F F
COUNT 1 1 1 1 1 1
WIDTH 864
HEIGHT 1
VIEWPOINT 0 0 0 1 0 0 0
POINTS 864
DATA ascii
-0.010758453 0.76700002 0.02824094 1.4012447e-38 312 219
-0.0094136465 0.76700002 0.02824094 1.318234e-38 313 219
-0.00806884 0.76700002 0.02824094 1.2076729e-38 314 219
-0.006724033 0.76700002 0.02824094 1.0786007e-38 315 219
-0.0053932532 0.76899999 0.028314579 1.0322533e-38 316 219
-0.0040449398 0.76899999 0.028314579 8.8470586e-39 317 219
-0.0026966266 0.76899999 0.028314579 8.66268e-39 318 219
-0.0013483133 0.76899999 0.028314579 8.47793e-39 319 219
0 0.76899999 0.028314579 8.1988502e-39 320 219
0.0013483133 0.76899999 0.028314579 8.1062958e-39 321 219
0.0026896133 0.76700002 0.02824094 8.2960695e-39 322 219
0.00403442 0.76700002 0.02824094 1.0047426e-38 323 219
0.0053722127 0.76599997 0.028204117 1.1432837e-38 324 219
0.0067152665 0.76599997 0.028204117 1.2723576e-38 325 219
0.0080372803 0.764 0.028130481 1.3278902e-38 326 219
0.0093522798 0.76200002 0.028056841 1.3832074e-38 327 219
0.01068832 0.76200002 0.028056841 1.465895e-38 328 219
0.01202436 0.76200002 0.028056841 1.4935535e-38 329 219
0.0133604 0.76200002 0.028056841 1.5211746e-38 330 219
0.01469644 0.76200002 0.028056841 1.5303942e-38 331 219
0.01603248 0.76200002 0.028056841 1.59464e-38 332 219
0.01736852 0.76200002 0.028056841 1.59464e-38 333 219
0.01870456 0.76200002 0.028056841 1.6130403e-38 334 219
0.0200406 0.76200002 0.028056841 1.6130403e-38 335 219
0.02137664 0.76200002 0.028056841 1.6312997e-38 336 219
0.02271268 0.76200002 0.028056841 1.6036774e-38 337 219
0.02404872 0.76200002 0.028056841 1.6127892e-38 338 219
0.02538476 0.76200002 0.028056841 1.5851309e-38 339 219
0.0267208 0.76200002 0.028056841 1.5942068e-38 340 219
0.028056841 0.76200002 0.028056841 1.5849874e-38 341 219
0.029547172 0.76599997 0.028204117 1.5572941e-38 342 219
0.030890226 0.76599997 0.028204117 1.5480387e-38 343 219
0.03227536 0.76700002 0.02824094 1.4929396e-38 344 219
0.033707831 0.76899999 0.028314579 1.4929396e-38 345 219
0.03514732 0.77100003 0.028388219 1.4467762e-38 346 219
0.036641158 0.77399999 0.028498679 1.5481914e-38 347 219
-0.03117251 0.773 0.027106533 1.5212928e-38 297 220
-0.029817186 0.773 0.027106533 1.5302892e-38 298 220
-0.028388219 0.77100003 0.027036399 1.5579479e-38 299 220
-0.027036399 0.77100003 0.027036399 1.5581958e-38 300 220
-0.025551327 0.76700002 0.026896132 1.576635e-38 301 220
-0.024206521 0.76700002 0.026896132 1.5768125e-38 302 220
-0.022861714 0.76700002 0.026896132 1.5399344e-38 303 220
-0.021516906 0.76700002 0.026896132 1.5765943e-38 304 220
-0.020172099 0.76700002 0.026896132 1.5396801e-38 305 220
-0.018802745 0.76599997 0.026861066 1.5671584e-38 306 220
-0.017459691 0.76599997 0.026861066 1.557939e-38 307 220
-0.016116638 0.76599997 0.026861066 1.5578314e-38 308 220
-0.014773586 0.76599997 0.026861066 1.5393925e-38 309 220
-0.013430533 0.76599997 0.026861066 1.493403e-38 310 220
-0.012087479 0.76599997 0.026861066 1.3919894e-38 311 220
-0.010744425 0.76599997 0.026861066 1.3552193e-38 312 220
-0.0094013726 0.76599997 0.026861066 1.2538415e-38 313 220
-0.00806884 0.76700002 0.026896132 1.1891621e-38 314 220
-0.006724033 0.76700002 0.026896132 9.8633475e-39 315 220
-0.0053792265 0.76700002 0.026896132 9.8597602e-39 316 220
-0.00403442 0.76700002 0.026896132 9.6753717e-39 317 220
-0.0026966266 0.76899999 0.026966266 9.1229336e-39 318 220
-0.0013483133 0.76899999 0.026966266 8.4775642e-39 319 220
0 0.76899999 0.026966266 8.5654593e-39 320 220
0.0013483133 0.76899999 0.026966266 8.0122883e-39 321 220
0.0026896133 0.76700002 0.026896132 7.5527521e-39 322 220
0.0040291594 0.76599997 0.026861066 9.3966437e-39 323 220
0.0053722127 0.76599997 0.026861066 1.124519e-38 324 220
0.006697733 0.764 0.026790932 1.2812515e-38 325 220
0.0080162399 0.76200002 0.0267208 1.3094122e-38 326 220
0.0093522798 0.76200002 0.0267208 1.3739492e-38 327 220
0.01068832 0.76200002 0.0267208 1.456673e-38 328 220
0.01202436 0.76200002 0.0267208 1.456673e-38 329 220
0.0133604 0.76200002 0.0267208 1.4843306e-38 330 220
0.014677152 0.76099998 0.026685731 1.4843306e-38 331 220
0.016011439 0.76099998 0.026685731 1.5485409e-38 332 220
0.017345725 0.76099998 0.026685731 1.5577604e-38 333 220
0.018680012 0.76099998 0.026685731 1.6311921e-38 334 220
0.020014299 0.76099998 0.026685731 1.6311921e-38 335 220
0.02137664 0.76200002 0.0267208 1.6220086e-38 336 220
0.02271268 0.76200002 0.0267208 1.6220086e-38 337 220
0.02404872 0.76200002 0.0267208 1.5943879e-38 338 220
0.02538476 0.76200002 0.0267208 1.5943879e-38 339 220
0.0267208 0.76200002 0.0267208 1.5482186e-38 340 220
0.028056841 0.76200002 0.0267208 1.5297793e-38 341 220
0.029470026 0.764 0.026790932 1.5204879e-38 342 220
0.030890226 0.76599997 0.026861066 1.5204879e-38 343 220
0.03227536 0.76700002 0.026896132 1.48372e-38 344 220
0.033707831 0.76899999 0.026966266 1.502195e-38 345 220
0.03514732 0.77100003 0.027036399 1.4559232e-38 346 220
0.036593821 0.773 0.027106533 1.548119e-38 347 220
0.037949149 0.773 0.027106533 1.6497562e-38 348 220
-0.03117251 0.773 0.025751207 1.5120001e-38 297 221
-0.029817186 0.773 0.025751207 1.5210321e-38 298 221
-0.028388219 0.77100003 0.02568458 1.5487268e-38 299 221
-0.026966266 0.76899999 0.025617953 1.539864e-38 300 221
-0.025551327 0.76700002 0.025551327 1.5491195e-38 301 221
-0.024206521 0.76700002 0.025551327 1.5767756e-38 302 221
-0.022831906 0.76599997 0.025518013 1.5490811e-38 303 221
-0.021488851 0.76599997 0.025518013 1.6040361e-38 304 221
-0.020172099 0.76700002 0.025551327 1.5763778e-38 305 221
-0.018753653 0.764 0.025451386 1.5579031e-38 306 221
-0.017414106 0.764 0.025451386 1.5763061e-38 307 221
-0.016116638 0.76599997 0.025518013 1.5577596e-38 308 221
-0.014735013 0.764 0.025451386 1.5301372e-38 309 221
-0.013395466 0.764 0.025451386 1.5024072e-38 310 221
-0.01205592 0.764 0.025451386 1.4378712e-38 311 221
-0.010716373 0.764 0.025451386 1.3734429e-38 312 221
-0.0093768267 0.764 0.025451386 1.3089069e-38 313 221
-0.0080583189 0.76599997 0.025518013 1.2350081e-38 314 221
-0.006697733 0.764 0.025451386 1.0414002e-38 315 221
-0.0053581866 0.764 0.025451386 9.9505195e-39 316 221
-0.0040186401 0.764 0.025451386 9.9505195e-39 317 221
-0.0026861064 0.76599997 0.025518013 9.3977129e-39 318 221
-0.0013448066 0.76700002 0.025551327 8.4761293e-39 319 221
0 0.76700002 0.025551327 8.012647e-39 320 221
0.0013448066 0.76700002 0.025551327 8.5658124e-39 321 221
0.0026896133 0.76700002 0.025551327 8.1116572e-39 322 221
0.0040186401 0.764 0.025451386 9.7711743e-39 323 221
0.0053581866 0.764 0.025451386 1.2351553e-38 324 221
0.0066801999 0.76200002 0.02538476 1.3458261e-38 325 221
0.0080162399 0.76200002 0.02538476 1.3645484e-38 326 221
0.0093400059 0.76099998 0.025351444 1.4013907e-38 327 221
0.010674292 0.76099998 0.025351444 1.4657466e-38 328 221
0.012008579 0.76099998 0.025351444 1.4934053e-38 329 221
0.013342866 0.76099998 0.025351444 1.4933349e-38 330 221
0.014677152 0.76099998 0.025351444 1.4933349e-38 331 221
0.016011439 0.76099998 0.025351444 1.5392159e-38 332 221
0.017345725 0.76099998 0.025351444 1.5484355e-38 333 221
0.018680012 0.76099998 0.025351444 1.5852033e-38 334 221
0.020014299 0.76099998 0.025351444 1.5852033e-38 335 221
0.021348584 0.76099998 0.025351444 1.6036062e-38 336 221
0.022682872 0.76099998 0.025351444 1.5943866e-38 337 221
0.024017159 0.76099998 0.025351444 1.5851686e-38 338 221
0.02538476 0.76200002 0.02538476 1.5575459e-38 339 221
0.0267208 0.76200002 0.02538476 1.575805e-38 340 221
0.028056841 0.76200002 0.02538476 1.5481461e-38 341 221
0.029470026 0.764 0.025451386 1.5389266e-38 342 221
0.030890226 0.76599997 0.025518013 1.5204876e-38 343 221
0.03227536 0.76700002 0.025551327 1.4928677e-38 344 221
0.033707831 0.76899999 0.025617953 1.5021232e-38 345 221
0.03514732 0.77100003 0.02568458 1.4283721e-38 346 221
0.036593821 0.773 0.025751207 1.5113482e-38 347 221
0.037949149 0.773 0.025751207 1.6130211e-38 348 221
-0.03117251 0.773 0.024395877 1.5304026e-38 297 222
-0.029817186 0.773 0.024395877 1.5854246e-38 298 222
-0.028314579 0.76899999 0.024269639 1.5854246e-38 299 222
-0.026966266 0.76899999 0.024269639 1.5581943e-38 300 222
-0.025551327 0.76700002 0.024206521 1.5581943e-38 301 222
-0.024174958 0.76599997 0.024174958 1.5950706e-38 302 222
-0.022831906 0.76599997 0.024174958 1.5858151e-38 303 222
-0.021488851 0.76599997 0.024174958 1.6224752e-38 304 222
-0.020145798 0.76599997 0.024174958 1.5947808e-38 305 222
-0.018753653 0.764 0.024111839 1.5855614e-38 306 222
-0.017414106 0.764 0.024111839 1.5763061e-38 307 222
-0.016074561 0.764 0.024111839 1.566979e-38 308 222
-0.014735013 0.764 0.024111839 1.5209178e-38 309 222
-0.013395466 0.764 0.024111839 1.5207384e-38 310 222
-0.01202436 0.76200002 0.02404872 1.4746772e-38 311 222
-0.01068832 0.76200002 0.02404872 1.4011012e-38 312 222
-0.0093522798 0.76200002 0.02404872 1.3365652e-38 313 222
-0.0080162399 0.76200002 0.02404872 1.2718857e-38 314 222
-0.0066801999 0.76200002 0.02404872 1.0782779e-38 315 222
-0.0053371461 0.76099998 0.024017159 1.0135984e-38 316 222
-0.0039712996 0.755 0.023827799 1.0228537e-38 317 222
-0.0026475333 0.755 0.023827799 1.0043431e-38 318 222
-0.0013272733 0.75700003 0.02389092 9.3980716e-39 319 222
0 0.76200002 0.02404872 7.8347158e-39 320 222
0.0013342865 0.76099998 0.024017159 9.4016631e-39 321 222
0.0026685731 0.76099998 0.024017159 1.1338853e-38 322 222
0.0040028598 0.76099998 0.024017159 1.2998373e-38 323 222
0.0053371461 0.76099998 0.024017159 1.4564604e-38 324 222
0.0066714329 0.76099998 0.024017159 1.4748997e-38 325 222
0.0080057196 0.76099998 0.024017159 1.4749677e-38 326 222
0.0093400059 0.76099998 0.024017159 1.4749677e-38 327 222
0.010674292 0.76099998 0.024017159 1.5025151e-38 328 222
0.012008579 0.76099998 0.024017159 1.5025151e-38 329 222
0.0133078 0.759 0.023954039 1.5208819e-38 330 222
0.014638579 0.759 0.023954039 1.5116625e-38 331 222
0.015969358 0.759 0.023954039 1.5391773e-38 332 222
0.017300138 0.759 0.023954039 1.557652e-38 333 222
0.018680012 0.76099998 0.024017159 1.5760191e-38 334 222
0.020014299 0.76099998 0.024017159 1.5760191e-38 335 222
0.021348584 0.76099998 0.024017159 1.6035339e-38 336 222
0.022682872 0.76099998 0.024017159 1.6035339e-38 337 222
0.024017159 0.76099998 0.024017159 1.5759124e-38 338 222
0.025351444 0.76099998 0.024017159 1.5759124e-38 339 222
0.0267208 0.76200002 0.02404872 1.5482186e-38 340 222
0.028056841 0.76200002 0.02404872 1.538999e-38 341 222
0.029470026 0.764 0.024111839 1.5298149e-38 342 222
0.030809574 0.764 0.024111839 1.5205595e-38 343 222
0.03227536 0.76700002 0.024206521 1.4837551e-38 344 222
0.033620168 0.76700002 0.024206521 1.4837551e-38 345 222
0.035056144 0.76899999 0.024269639 1.4559216e-38 346 222
0.036404461 0.76899999 0.024269639 1.5296781e-38 347 222
0.03775277 0.76899999 0.024269639 1.5853978e-38 348 222
-0.03117251 0.773 0.023040552 1.530473e-38 297 223
-0.029817186 0.773 0.023040552 1.5946792e-38 298 223
-0.028314579 0.76899999 0.022921326 1.5854596e-38 299 223
-0.026896132 0.76700002 0.022861714 1.5673059e-38 300 223
-0.025518013 0.76599997 0.022831906 1.5765255e-38 301 223
-0.024174958 0.76599997 0.022831906 1.6134015e-38 302 223
-0.022772292 0.764 0.022772292 1.604182e-38 303 223
-0.021432746 0.764 0.022772292 1.6317302e-38 304 223
-0.020145798 0.76599997 0.022831906 1.6132555e-38 305 223
-0.018753653 0.764 0.022772292 1.6040002e-38 306 223
-0.017414106 0.764 0.022772292 1.5763419e-38 307 223
-0.016074561 0.764 0.022772292 1.5853461e-38 308 223
-0.01469644 0.76200002 0.02271268 1.5485043e-38 309 223
-0.0133604 0.76200002 0.02271268 1.5207743e-38 310 223
-0.01202436 0.76200002 0.02271268 1.4838966e-38 311 223
-0.010674292 0.76099998 0.022682872 1.4195041e-38 312 223
-0.0093400059 0.76099998 0.022682872 1.4010653e-38 313 223
-0.0079846792 0.759 0.02262326 1.3363141e-38 314 223
-0.0066538998 0.759 0.02262326 1.1703286e-38 315 223
-0.0053090933 0.75700003 0.022563647 1.1151556e-38 316 223
-0.0039712996 0.755 0.022504034 1.2073862e-38 317 223
-0.0026475333 0.755 0.022504034 1.2626695e-38 318 223
-0.0013237667 0.755 0.022504034 1.2718891e-38 319 223
0 0.755 0.022504034 1.2350847e-38 320 223
0.0013272733 0.75700003 0.022563647 1.271999e-38 321 223
0.00266156 0.759 0.02262326 1.3458627e-38 322 223
0.0039923396 0.759 0.02262326 1.4011801e-38 323 223
0.0053231199 0.759 0.02262326 1.4933002e-38 324 223
0.0066538998 0.759 0.02262326 1.5117034e-38 325 223
0.0079846792 0.759 0.02262326 1.5301386e-38 326 223
0.00931546 0.759 0.02262326 1.5301386e-38 327 223
0.010618187 0.75700003 0.022563647 1.5852744e-38 328 223
0.01194546 0.75700003 0.022563647 1.5852744e-38 329 223
0.013272733 0.75700003 0.022563647 1.5485043e-38 330 223
0.014600007 0.75700003 0.022563647 1.5300655e-38 331 223
0.015927281 0.75700003 0.022563647 1.5208819e-38 332 223
0.017254554 0.75700003 0.022563647 1.5301013e-38 333 223
0.01863092 0.759 0.02262326 1.5484326e-38 334 223
0.0199617 0.759 0.02262326 1.557652e-38 335 223
0.021348584 0.76099998 0.022682872 1.5667279e-38 336 223
0.022682872 0.76099998 0.022682872 1.5667279e-38 337 223
0.024017159 0.76099998 0.022682872 1.5667279e-38 338 223
0.025351444 0.76099998 0.022682872 1.5482891e-38 339 223
0.0267208 0.76200002 0.02271268 1.5390339e-38 340 223
0.028056841 0.76200002 0.02271268 1.5390339e-38 341 223
0.029392879 0.76200002 0.02271268 1.5298146e-38 342 223
0.030809574 0.764 0.022772292 1.5205951e-38 343 223
0.032233275 0.76599997 0.022831906 1.4929381e-38 344 223
0.033620168 0.76700002 0.022861714 1.4929381e-38 345 223
0.034964975 0.76700002 0.022861714 1.4651409e-38 346 223
0.036309779 0.76700002 0.022861714 1.5296779e-38 347 223
0.037654586 0.76700002 0.022861714 1.6036928e-38 348 223
-0.032443684 0.77100003 0.021629119 1.6133399e-38 296 224
-0.030930554 0.76700002 0.021516906 1.5395832e-38 297 224
-0.029585747 0.76700002 0.021516906 1.5946779e-38 298 224
-0.02824094 0.76700002 0.021516906 1.5946779e-38 299 224
-0.026896132 0.76700002 0.021516906 1.5764889e-38 300 224
-0.025518013 0.76599997 0.021488851 1.6041116e-38 301 224
-0.024111839 0.764 0.021432746 1.6134371e-38 302 224
-0.022772292 0.764 0.021432746 1.6134371e-38 303 224
-0.021432746 0.764 0.021432746 1.6500615e-38 304 224
-0.020093199 0.764 0.021432746 1.6224391e-38 305 224
-0.01870456 0.76200002 0.02137664 1.6223673e-38 306 224
-0.01736852 0.76200002 0.02137664 1.6131479e-38 307 224
-0.01603248 0.76200002 0.02137664 1.5854896e-38 308 224
-0.01469644 0.76200002 0.02137664 1.5577955e-38 309 224
-0.0133604 0.76200002 0.02137664 1.539249e-38 310 224
-0.01202436 0.76200002 0.02137664 1.5023713e-38 311 224
-0.010674292 0.76099998 0.021348584 1.4563101e-38 312 224
-0.0093400059 0.76099998 0.021348584 1.4655295e-38 313 224
-0.0079846792 0.759 0.02129248 1.4378354e-38 314 224
-0.0066363667 0.75700003 0.021236373 1.281141e-38 315 224
-0.0053090933 0.75700003 0.021236373 1.2352239e-38 316 224
-0.0039712996 0.755 0.021180267 1.3182358e-38 317 224
-0.0026475333 0.755 0.021180267 1.3826668e-38 318 224
-0.0013237667 0.755 0.021180267 1.4195449e-38 319 224
0 0.755 0.021180267 1.4195083e-38 320 224
0.0013237667 0.755 0.021180267 1.4655703e-38 321 224
0.0026475333 0.755 0.021180267 1.4841166e-38 322 224
0.0039818203 0.75700003 0.021236373 1.4933722e-38 323 224
0.0053090933 0.75700003 0.021236373 1.5392878e-38 324 224
0.0066363667 0.75700003 0.021236373 1.5392878e-38 325 224
0.0079636406 0.75700003 0.021236373 1.5852744e-38 326 224
0.0092909131 0.75700003 0.021236373 1.5944938e-38 327 224
0.010618187 0.75700003 0.021236373 1.6129685e-38 328 224
0.01194546 0.75700003 0.021236373 1.5945297e-38 329 224
0.013272733 0.75700003 0.021236373 1.5853103e-38 330 224
0.014600007 0.75700003 0.021236373 1.5669073e-38 331 224
0.015927281 0.75700003 0.021236373 1.5576879e-38 332 224
0.017254554 0.75700003 0.021236373 1.5576879e-38 333 224
0.01863092 0.759 0.02129248 1.5484326e-38 334 224
0.0199617 0.759 0.02129248 1.5576879e-38 335 224
0.021348584 0.76099998 0.021348584 1.5484326e-38 336 224
0.022682872 0.76099998 0.021348584 1.5484326e-38 337 224
0.024017159 0.76099998 0.021348584 1.566692e-38 338 224
0.025351444 0.76099998 0.021348584 1.5574726e-38 339 224
0.0267208 0.76200002 0.02137664 1.5298502e-38 340 224
0.028056841 0.76200002 0.02137664 1.5298502e-38 341 224
0.029392879 0.76200002 0.02137664 1.5022282e-38 342 224
0.030809574 0.764 0.021432746 1.4930087e-38 343 224
0.032233275 0.76599997 0.021488851 1.465352e-38 344 224
0.033576332 0.76599997 0.021488851 1.4837551e-38 345 224
0.034964975 0.76700002 0.021516906 1.4652128e-38 346 224
0.036309779 0.76700002 0.021516906 1.5113106e-38 347 224
0.037654586 0.76700002 0.021516906 1.5852178e-38 348 224
-0.033883166 0.773 0.0203299 1.6502613e-38 295 225
-0.032443684 0.77100003 0.020277301 1.6316708e-38 296 225
-0.031091858 0.77100003 0.020277301 1.5671339e-38 297 225
-0.029585747 0.76700002 0.020172099 1.6130092e-38 298 225
-0.02824094 0.76700002 0.020172099 1.6130092e-38 299 225
-0.026896132 0.76700002 0.020172099 1.5856358e-38 300 225
-0.025518013 0.76599997 0.020145798 1.604075e-38 301 225
-0.024111839 0.764 0.020093199 1.6318044e-38 302 225
-0.022772292 0.764 0.020093199 1.6318044e-38 303 225
-0.021432746 0.764 0.020093199 1.6409511e-38 304 225
-0.020093199 0.764 0.020093199 1.6225119e-38 305 225
-0.01870456 0.76200002 0.0200406 1.6225108e-38 306 225
-0.01736852 0.76200002 0.0200406 1.6040361e-38 307 225
-0.01603248 0.76200002 0.0200406 1.5947808e-38 308 225
-0.01469644 0.76200002 0.0200406 1.5763419e-38 309 225
-0.0133604 0.76200002 0.0200406 1.5577237e-38 310 225
-0.012008579 0.76099998 0.020014299 1.539249e-38 311 225
-0.010674292 0.76099998 0.020014299 1.5024431e-38 312 225
-0.00931546 0.759 0.0199617 1.4931878e-38 313 225
-0.0079636406 0.75700003 0.019909101 1.4930802e-38 314 225
-0.0066363667 0.75700003 0.019909101 1.4561666e-38 315 225
-0.0052950666 0.755 0.0198565 1.3736595e-38 316 225
-0.0039712996 0.755 0.0198565 1.4013541e-38 317 225
-0.0026475333 0.755 0.0198565 1.3920271e-38 318 225
-0.0013237667 0.755 0.0198565 1.410466e-38 319 225
0 0.755 0.0198565 1.4747138e-38 320 225
0.0013237667 0.755 0.0198565 1.511592e-38 321 225
0.0026475333 0.755 0.0198565 1.5300677e-38 322 225
0.0039712996 0.755 0.0198565 1.5577624e-38 323 225
0.0052950666 0.755 0.0198565 1.5670526e-38 324 225
0.0066188332 0.755 0.0198565 1.5946753e-38 325 225
0.0079425992 0.755 0.0198565 1.5946732e-38 326 225
0.0092663663 0.755 0.0198565 1.6130761e-38 327 225
0.010590133 0.755 0.0198565 1.613112e-38 328 225
0.011913899 0.755 0.0198565 1.5854896e-38 329 225
0.013237666 0.755 0.0198565 1.5945655e-38 330 225
0.014561433 0.755 0.0198565 1.5853461e-38 331 225
0.015885198 0.755 0.0198565 1.5576879e-38 332 225
0.017254554 0.75700003 0.019909101 1.5484684e-38 333 225
0.018581826 0.75700003 0.019909101 1.5483967e-38 334 225
0.019909101 0.75700003 0.019909101 1.5667997e-38 335 225
0.02129248 0.759 0.0199617 1.5483608e-38 336 225
0.02262326 0.759 0.0199617 1.5667997e-38 337 225
0.024017159 0.76099998 0.020014299 1.5483608e-38 338 225
0.025351444 0.76099998 0.020014299 1.5483608e-38 339 225
0.0267208 0.76200002 0.0200406 1.5298502e-38 340 225
0.028056841 0.76200002 0.0200406 1.5206308e-38 341 225
0.029392879 0.76200002 0.0200406 1.5021202e-38 342 225
0.030809574 0.764 0.020093199 1.5021202e-38 343 225
0.032233275 0.76599997 0.020145798 1.4744636e-38 344 225
0.033576332 0.76599997 0.020145798 1.4836832e-38 345 225
0.034964975 0.76700002 0.020172099 1.4559214e-38 346 225
0.036309779 0.76700002 0.020172099 1.4927995e-38 347 225
0.037654586 0.76700002 0.020172099 1.5852534e-38 348 225
-0.033883166 0.773 0.018974574 1.6410058e-38 295 226
-0.032527838 0.773 0.018974574 1.6224514e-38 296 226
-0.031091858 0.77100003 0.018925481 1.5763537e-38 297 226
-0.02966289 0.76899999 0.018876385 1.622229e-38 298 226
-0.02824094 0.76700002 0.018827293 1.6130094e-38 299 226
-0.026896132 0.76700002 0.018827293 1.5856358e-38 300 226
-0.025518013 0.76599997 0.018802745 1.604075e-38 301 226
-0.024111839 0.764 0.018753653 1.6133662e-38 302 226
-0.02271268 0.76200002 0.01870456 1.6226216e-38 303 226
-0.02137664 0.76200002 0.01870456 1.6501706e-38 304 226
-0.0200406 0.76200002 0.01870456 1.6317315e-38 305 226
-0.01870456 0.76200002 0.01870456 1.6683568e-38 306 226
-0.01736852 0.76200002 0.01870456 1.6776121e-38 307 226
-0.01603248 0.76200002 0.01870456 1.6683209e-38 308 226
-0.01469644 0.76200002 0.01870456 1.6406268e-38 309 226
-0.013342866 0.76099998 0.018680012 1.6037491e-38 310 226
-0.012008579 0.76099998 0.018680012 1.5945297e-38 311 226
-0.01064624 0.759 0.01863092 1.5944938e-38 312 226
-0.0092909131 0.75700003 0.018581826 1.5668355e-38 313 226
-0.0079636406 0.75700003 0.018581826 1.5024431e-38 314 226
-0.0066363667 0.75700003 0.018581826 1.5024431e-38 315 226
-0.0052950666 0.755 0.018532733 1.4749283e-38 316 226
-0.0039712996 0.755 0.018532733 1.4749283e-38 317 226
-0.0026475333 0.755 0.018532733 1.5024072e-38 318 226
-0.0013237667 0.755 0.018532733 1.5116266e-38 319 226
0 0.755 0.018532733 1.5391773e-38 320 226
0.0013220133 0.75400001 0.018508185 1.5483967e-38 321 226
0.0026440267 0.75400001 0.018508185 1.5668355e-38 322 226
0.0039712996 0.755 0.018532733 1.6037135e-38 323 226
0.0052880533 0.75400001 0.018508185 1.6222238e-38 324 226
0.0066100666 0.75400001 0.018508185 1.6406627e-38 325 226
0.00793208 0.75400001 0.018508185 1.6500256e-38 326 226
0.0092663663 0.755 0.018532733 1.6315867e-38 327 226
0.010590133 0.755 0.018532733 1.6406268e-38 328 226
0.011913899 0.755 0.018532733 1.6314074e-38 329 226
0.013237666 0.755 0.018532733 1.6129685e-38 330 226
0.014561433 0.755 0.018532733 1.5945297e-38 331 226
0.015885198 0.755 0.018532733 1.6036056e-38 332 226
0.017208965 0.755 0.018532733 1.6036056e-38 333 226
0.018581826 0.75700003 0.018581826 1.5759473e-38 334 226
0.019909101 0.75700003 0.018581826 1.5759473e-38 335 226
0.021236373 0.75700003 0.018581826 1.5667638e-38 336 226
0.02262326 0.759 0.01863092 1.5759832e-38 337 226
0.023954039 0.759 0.01863092 1.5483608e-38 338 226
0.025284819 0.759 0.01863092 1.5391055e-38 339 226
0.026685731 0.76099998 0.018680012 1.5298502e-38 340 226
0.028056841 0.76200002 0.01870456 1.5206308e-38 341 226
0.029392879 0.76200002 0.01870456 1.5021202e-38 342 226
0.030728921 0.76200002 0.01870456 1.4837172e-38 343 226
0.032233275 0.76599997 0.018802745 1.4469131e-38 344 226
0.033576332 0.76599997 0.018802745 1.4561327e-38 345 226
0.034919381 0.76599997 0.018802745 1.419151e-38 346 226
0.036309779 0.76700002 0.018827293 1.4652128e-38 347 226
0.037654586 0.76700002 0.018827293 1.5577022e-38 348 226
-0.033883166 0.773 0.017619247 1.6410058e-38 295 227
-0.032527838 0.773 0.017619247 1.6223792e-38 296 227
-0.031091858 0.77100003 0.01757366 1.585501e-38 297 227
-0.02966289 0.76899999 0.017528072 1.5947498e-38 298 227
-0.02824094 0.76700002 0.017482487 1.5947498e-38 299 227
-0.026896132 0.76700002 0.017482487 1.5948185e-38 300 227
-0.025518013 0.76599997 0.017459691 1.6040382e-38 301 227
-0.02404872 0.76200002 0.01736852 1.6408439e-38 302 227
-0.02271268 0.76200002 0.01736852 1.6592828e-38 303 227
-0.02137664 0.76200002 0.01736852 1.6684671e-38 304 227
-0.0200406 0.76200002 0.01736852 1.6684671e-38 305 227
-0.01870456 0.76200002 0.01736852 1.6685021e-38 306 227
-0.017345725 0.76099998 0.017345725 1.6408794e-38 307 227
-0.016011439 0.76099998 0.017345725 1.677648e-38 308 227
-0.014677152 0.76099998 0.017345725 1.6407703e-38 309 227
-0.013342866 0.76099998 0.017345725 1.6222597e-38 310 227
-0.01197702 0.759 0.017300138 1.6130403e-38 311 227
-0.010618187 0.75700003 0.017254554 1.5579031e-38 312 227
-0.0092909131 0.75700003 0.017254554 1.5486837e-38 313 227
-0.0079636406 0.75700003 0.017254554 1.5118419e-38 314 227
-0.0066188332 0.755 0.017208965 1.5302448e-38 315 227
-0.0052950666 0.755 0.017208965 1.5395719e-38 316 227
-0.0039712996 0.755 0.017208965 1.557975e-38 317 227
-0.0026475333 0.755 0.017208965 1.5762343e-38 318 227
-0.0013237667 0.755 0.017208965 1.5578314e-38 319 227
0 0.755 0.017208965 1.5945297e-38 320 227
0.0013220133 0.75400001 0.017186172 1.5945297e-38 321 227
0.0026440267 0.75400001 0.017186172 1.5946018e-38 322 227
0.0039712996 0.755 0.017208965 1.6499192e-38 323 227
0.0052880533 0.75400001 0.017186172 1.6960163e-38 324 227
0.0066100666 0.75400001 0.017186172 1.6867968e-38 325 227
0.00793208 0.75400001 0.017186172 1.6683568e-38 326 227
0.0092540924 0.75400001 0.017186172 1.6407344e-38 327 227
0.010576107 0.75400001 0.017186172 1.6498462e-38 328 227
0.01189812 0.75400001 0.017186172 1.6406268e-38 329 227
0.013237666 0.755 0.017208965 1.594709e-38 330 227
0.014561433 0.755 0.017208965 1.5854896e-38 331 227
0.015885198 0.755 0.017208965 1.5944938e-38 332 227
0.017208965 0.755 0.017208965 1.576055e-38 333 227
0.018532733 0.755 0.017208965 1.5576879e-38 334 227
0.0198565 0.755 0.017208965 1.5484684e-38 335 227
0.021180267 0.755 0.017208965 1.5484326e-38 336 227
0.022563647 0.75700003 0.017254554 1.5392131e-38 337 227
0.02389092 0.75700003 0.017254554 1.5391055e-38 338 227
0.025284819 0.759 0.017300138 1.5391055e-38 339 227
0.026685731 0.76099998 0.017345725 1.5023354e-38 340 227
0.028020019 0.76099998 0.017345725 1.493116e-38 341 227
0.029392879 0.76200002 0.01736852 1.4837535e-38 342 227
0.030728921 0.76200002 0.01736852 1.474534e-38 343 227
0.032233275 0.76599997 0.017459691 1.4376212e-38 344 227
0.033576332 0.76599997 0.017459691 1.4560244e-38 345 227
0.034919381 0.76599997 0.017459691 1.4190427e-38 346 227
0.036309779 0.76700002 0.017482487 1.4835796e-38 347 227
0.037654586 0.76700002 0.017482487 1.5485189e-38 348 227
-0.033883166 0.773 0.016263919 1.6410058e-38 295 228
-0.032527838 0.773 0.016263919 1.6316711e-38 296 228
-0.031091858 0.77100003 0.016221842 1.5763537e-38 297 228
-0.029585747 0.76700002 0.01613768 1.6038975e-38 298 228
-0.02824094 0.76700002 0.01613768 1.6038975e-38 299 228
-0.026861066 0.76599997 0.016116638 1.6131497e-38 300 228
-0.025451386 0.764 0.016074561 1.6223694e-38 301 228
-0.02404872 0.76200002 0.01603248 1.6224413e-38 302 228
-0.02271268 0.76200002 0.01603248 1.6409163e-38 303 228
-0.02137664 0.76200002 0.01603248 1.6501005e-38 304 228
-0.0200406 0.76200002 0.01603248 1.6501005e-38 305 228
-0.01870456 0.76200002 0.01603248 1.6867615e-38 306 228
-0.017345725 0.76099998 0.016011439 1.6867615e-38 307 228
-0.016011439 0.76099998 0.016011439 1.6868315e-38 308 228
-0.014677152 0.76099998 0.016011439 1.6776121e-38 309 228
-0.0133078 0.759 0.015969358 1.6775045e-38 310 228
-0.01194546 0.75700003 0.015927281 1.6682851e-38 311 228
-0.010618187 0.75700003 0.015927281 1.6223314e-38 312 228
-0.0092909131 0.75700003 0.015927281 1.6130761e-38 313 228
-0.0079425992 0.755 0.015885198 1.5946732e-38 314 228
-0.0066188332 0.755 0.015885198 1.5946732e-38 315 228
-0.0052950666 0.755 0.015885198 1.5764137e-38 316 228
-0.0039712996 0.755 0.015885198 1.5948167e-38 317 228
-0.0026475333 0.755 0.015885198 1.613112e-38 318 228
-0.0013237667 0.755 0.015885198 1.6223314e-38 319 228
0 0.755 0.015885198 1.631515e-38 320 228
0.0013220133 0.75400001 0.01586416 1.6222597e-38 321 228
0.0026440267 0.75400001 0.01586416 1.6773969e-38 322 228
0.00396604 0.75400001 0.01586416 1.7050551e-38 323 228
0.0052880533 0.75400001 0.01586416 1.677648e-38 324 228
0.0066100666 0.75400001 0.01586416 1.659245e-38 325 228
0.00793208 0.75400001 0.01586416 1.6775045e-38 326 228
0.0092540924 0.75400001 0.01586416 1.6682851e-38 327 228
0.010576107 0.75400001 0.01586416 1.6498462e-38 328 228
0.01189812 0.75400001 0.01586416 1.6406268e-38 329 228
0.013237666 0.755 0.015885198 1.6313715e-38 330 228
0.014561433 0.755 0.015885198 1.6313715e-38 331 228
0.015885198 0.755 0.015885198 1.6037491e-38 332 228
0.017208965 0.755 0.015885198 1.5945297e-38 333 228
0.018532733 0.755 0.015885198 1.6036056e-38 334 228
0.0198565 0.755 0.015885198 1.5852026e-38 335 228
0.021180267 0.755 0.015885198 1.5667997e-38 336 228
0.022563647 0.75700003 0.015927281 1.5391414e-38 337 228
0.02389092 0.75700003 0.015927281 1.5391055e-38 338 228
0.025218192 0.75700003 0.015927281 1.5298861e-38 339 228
0.026615599 0.759 0.015969358 1.4931519e-38 340 228
0.028020019 0.76099998 0.016011439 1.4654936e-38 341 228
0.029392879 0.76200002 0.01603248 1.4653501e-38 342 228
0.030728921 0.76200002 0.01603248 1.4653501e-38 343 228
0.032149121 0.764 0.016074561 1.428438e-38 344 228
0.033488665 0.764 0.016074561 1.4376575e-38 345 228
0.034919381 0.76599997 0.016116638 1.419151e-38 346 228
0.036309779 0.76700002 0.01613768 1.4652128e-38 347 228
0.037654586 0.76700002 0.01613768 1.5208606e-38 348 228
-0.032527838 0.773 0.014908593 1.6040846e-38 296 229
-0.031091858 0.77100003 0.01487002 1.5764259e-38 297 229
-0.029585747 0.76700002 0.014792874 1.6314486e-38 298 229
-0.02824094 0.76700002 0.014792874 1.6314486e-38 299 229
-0.026861066 0.76599997 0.014773586 1.6223697e-38 300 229
-0.025451386 0.764 0.014735013 1.6315893e-38 301 229
-0.02404872 0.76200002 0.01469644 1.6316965e-38 302 229
-0.02271268 0.76200002 0.01469644 1.640916e-38 303 229
-0.02137664 0.76200002 0.01469644 1.6684674e-38 304 229
-0.0200406 0.76200002 0.01469644 1.6684674e-38 305 229
-0.018680012 0.76099998 0.014677152 1.6776145e-38 306 229
-0.017345725 0.76099998 0.014677152 1.6868699e-38 307 229
-0.016011439 0.76099998 0.014677152 1.6960868e-38 308 229
-0.014638579 0.759 0.014638579 1.677648e-38 309 229
-0.0133078 0.759 0.014638579 1.7051986e-38 310 229
-0.01194546 0.75700003 0.014600007 1.7051986e-38 311 229
-0.010618187 0.75700003 0.014600007 1.659245e-38 312 229
-0.0092663663 0.755 0.014561433 1.659245e-38 313 229
-0.0079425992 0.755 0.014561433 1.6775762e-38 314 229
-0.0066188332 0.755 0.014561433 1.6407344e-38 315 229
-0.0052950666 0.755 0.014561433 1.6224749e-38 316 229
-0.0039712996 0.755 0.014561433 1.6132196e-38 317 229
-0.0026475333 0.755 0.014561433 1.6132555e-38 318 229
-0.0013237667 0.755 0.014561433 1.6224749e-38 319 229
0 0.755 0.014561433 1.640842e-38 320 229
0.0013220133 0.75400001 0.014542146 1.6315867e-38 321 229
0.0026440267 0.75400001 0.014542146 1.6775404e-38 322 229
0.00396604 0.75400001 0.014542146 1.7051627e-38 323 229
0.0052880533 0.75400001 0.014542146 1.6867957e-38 324 229
0.0066100666 0.75400001 0.014542146 1.6867957e-38 325 229
0.00793208 0.75400001 0.014542146 1.6775404e-38 326 229
0.0092540924 0.75400001 0.014542146 1.6775404e-38 327 229
0.010576107 0.75400001 0.014542146 1.6590656e-38 328 229
0.011913899 0.755 0.014561433 1.6498462e-38 329 229
0.013237666 0.755 0.014561433 1.6313715e-38 330 229
0.014542146 0.75400001 0.014542146 1.6129685e-38 331 229
0.01586416 0.75400001 0.014542146 1.5946014e-38 332 229
0.017208965 0.755 0.014561433 1.5853461e-38 333 229
0.018532733 0.755 0.014561433 1.5852744e-38 334 229
0.0198565 0.755 0.014561433 1.5760191e-38 335 229
0.021180267 0.755 0.014561433 1.5667997e-38 336 229
0.022563647 0.75700003 0.014600007 1.5391414e-38 337 229
0.02389092 0.75700003 0.014600007 1.529922e-38 338 229
0.025218192 0.75700003 0.014600007 1.5206667e-38 339 229
0.026615599 0.759 0.014638579 1.502192e-38 340 229
0.028020019 0.76099998 0.014677152 1.4745696e-38 341 229
0.029392879 0.76200002 0.01469644 1.4560948e-38 342 229
0.030728921 0.76200002 0.01469644 1.4560948e-38 343 229
0.032149121 0.764 0.014735013 1.4284383e-38 344 229
0.033488665 0.764 0.014735013 1.4376578e-38 345 229
0.034919381 0.76599997 0.014773586 1.4191154e-38 346 229
0.036309779 0.76700002 0.014792874 1.4836524e-38 347 229
0.037654586 0.76700002 0.014792874 1.5024937e-38 348 229
-0.032527838 0.773 0.013553266 1.6133048e-38 296 230
-0.031091858 0.77100003 0.013518199 1.5763906e-38 297 230
-0.02966289 0.76899999 0.013483133 1.6314854e-38 298 230
-0.02824094 0.76700002 0.013448066 1.6314854e-38 299 230
-0.026861066 0.76599997 0.013430533 1.6223347e-38 300 230
-0.025451386 0.764 0.013395466 1.6315542e-38 301 230
-0.02404872 0.76200002 0.0133604 1.6316611e-38 302 230
-0.02271268 0.76200002 0.0133604 1.6408807e-38 303 230
-0.02137664 0.76200002 0.0133604 1.6684674e-38 304 230
-0.0200406 0.76200002 0.0133604 1.6776869e-38 305 230
-0.018680012 0.76099998 0.013342866 1.6685748e-38 306 230
-0.017345725 0.76099998 0.013342866 1.6685748e-38 307 230
-0.015969358 0.759 0.0133078 1.6777923e-38 308 230
-0.014638579 0.759 0.0133078 1.6685727e-38 309 230
-0.013272733 0.75700003 0.013272733 1.6869033e-38 310 230
-0.011913899 0.755 0.013237666 1.6869033e-38 311 230
-0.010590133 0.755 0.013237666 1.6869033e-38 312 230
-0.0092663663 0.755 0.013237666 1.6776838e-38 313 230
-0.0079425992 0.755 0.013237666 1.6500973e-38 314 230
-0.0066188332 0.755 0.013237666 1.6408779e-38 315 230
-0.0052950666 0.755 0.013237666 1.640842e-38 316 230
-0.0039712996 0.755 0.013237666 1.640842e-38 317 230
-0.0026475333 0.755 0.013237666 1.640842e-38 318 230
-0.0013220133 0.75400001 0.013220133 1.6500615e-38 319 230
0 0.75400001 0.013220133 1.6683568e-38 320 230
0.0013220133 0.75400001 0.013220133 1.6683568e-38 321 230
0.0026440267 0.75400001 0.013220133 1.6958357e-38 322 230
0.00396604 0.75400001 0.013220133 1.705091e-38 323 230
0.0052880533 0.75400001 0.013220133 1.6959075e-38 324 230
0.0066100666 0.75400001 0.013220133 1.6959075e-38 325 230
0.00793208 0.75400001 0.013220133 1.6683209e-38 326 230
0.0092540924 0.75400001 0.013220133 1.6591015e-38 327 230
0.010576107 0.75400001 0.013220133 1.677361e-38 328 230
0.01189812 0.75400001 0.013220133 1.6497386e-38 329 230
0.013220133 0.75400001 0.013220133 1.6129685e-38 330 230
0.014542146 0.75400001 0.013220133 1.6129685e-38 331 230
0.01586416 0.75400001 0.013220133 1.6037491e-38 332 230
0.017208965 0.755 0.013237666 1.5852744e-38 333 230
0.018532733 0.755 0.013237666 1.5760191e-38 334 230
0.0198565 0.755 0.013237666 1.5667997e-38 335 230
0.021180267 0.755 0.013237666 1.5483608e-38 336 230
0.022563647 0.75700003 0.013272733 1.529922e-38 337 230
0.02389092 0.75700003 0.013272733 1.5023354e-38 338 230
0.025284819 0.759 0.0133078 1.5023354e-38 339 230
0.026615599 0.759 0.0133078 1.4838607e-38 340 230
0.028020019 0.76099998 0.013342866 1.4562025e-38 341 230
0.029392879 0.76200002 0.0133604 1.4376919e-38 342 230
0.030728921 0.76200002 0.0133604 1.4284724e-38 343 230
0.032149121 0.764 0.013395466 1.4191831e-38 344 230
0.033488665 0.764 0.013395466 1.4376581e-38 345 230
0.034828212 0.764 0.013395466 1.4191879e-38 346 230
0.036309779 0.76700002 0.013448066 1.4837248e-38 347 230
0.037654586 0.76700002 0.013448066 1.5209331e-38 348 230
-0.032527838 0.773 0.012197939 1.6133417e-38 296 231
-0.031091858 0.77100003 0.01216638 1.5764634e-38 297 231
-0.029585747 0.76700002 0.01210326 1.6315228e-38 298 231
-0.028204117 0.76599997 0.012087479 1.6223031e-38 299 231
-0.026861066 0.76599997 0.012087479 1.6315189e-38 300 231
-0.025518013 0.76599997 0.012087479 1.6407385e-38 301 231
-0.024111839 0.764 0.01205592 1.6408454e-38 302 231
-0.02271268 0.76200002 0.01202436 1.6501008e-38 303 231
-0.02137664 0.76200002 0.01202436 1.6592848e-38 304 231
-0.0200406 0.76200002 0.01202436 1.6685045e-38 305 231
-0.018680012 0.76099998 0.012008579 1.6686117e-38 306 231
-0.017345725 0.76099998 0.012008579 1.6593921e-38 307 231
-0.015969358 0.759 0.01197702 1.6686458e-38 308 231
-0.014638579 0.759 0.01197702 1.6593902e-38 309 231
-0.013272733 0.75700003 0.01194546 1.6777915e-38 310 231
-0.011913899 0.755 0.011913899 1.6777915e-38 311 231
-0.010590133 0.755 0.011913899 1.6869391e-38 312 231
-0.0092663663 0.755 0.011913899 1.6961586e-38 313 231
-0.0079425992 0.755 0.011913899 1.6593526e-38 314 231
-0.0066188332 0.755 0.011913899 1.6593526e-38 315 231
-0.0052950666 0.755 0.011913899 1.6592091e-38 316 231
-0.0039712996 0.755 0.011913899 1.6592091e-38 317 231
-0.0026440267 0.75400001 0.01189812 1.6592094e-38 318 231
-0.0013220133 0.75400001 0.01189812 1.6592094e-38 319 231
0 0.75400001 0.01189812 1.659245e-38 320 231
0.0013220133 0.75400001 0.01189812 1.6500256e-38 321 231
0.0026440267 0.75400001 0.01189812 1.6959075e-38 322 231
0.00396604 0.75400001 0.01189812 1.6959075e-38 323 231
0.0052880533 0.75400001 0.01189812 1.6775406e-38 324 231
0.0065925326 0.75199997 0.011866559 1.6683209e-38 325 231
0.0079110395 0.75199997 0.011866559 1.6683209e-38 326 231
0.0092540924 0.75400001 0.01189812 1.6590656e-38 327 231
0.010576107 0.75400001 0.01189812 1.6497745e-38 328 231
0.01189812 0.75400001 0.01189812 1.6313356e-38 329 231
0.013220133 0.75400001 0.01189812 1.6037132e-38 330 231
0.014542146 0.75400001 0.01189812 1.5944938e-38 331 231
0.01586416 0.75400001 0.01189812 1.5669073e-38 332 231
0.017208965 0.755 0.011913899 1.5669073e-38 333 231
0.018532733 0.755 0.011913899 1.5576879e-38 334 231
0.0198565 0.755 0.011913899 1.539249e-38 335 231
0.021180267 0.755 0.011913899 1.5299578e-38 336 231
0.022563647 0.75700003 0.01194546 1.5023354e-38 337 231
0.02389092 0.75700003 0.01194546 1.4931519e-38 338 231
0.025284819 0.759 0.01197702 1.4839325e-38 339 231
0.026615599 0.759 0.01197702 1.4838607e-38 340 231
0.028020019 0.76099998 0.012008579 1.4561666e-38 341 231
0.029392879 0.76200002 0.01202436 1.437656e-38 342 231
0.030728921 0.76200002 0.01202436 1.4284366e-38 343 231
0.032149121 0.764 0.01205592 1.4100364e-38 344 231
0.033488665 0.764 0.01205592 1.4192561e-38 345 231
0.034828212 0.764 0.01205592 1.4100053e-38 346 231
0.036309779 0.76700002 0.01210326 1.4561031e-38 347 231
-0.032527838 0.773 0.010842613 1.6317458e-38 296 232
-0.031091858 0.77100003 0.01081456 1.5764284e-38 297 232
-0.029585747 0.76700002 0.010758453 1.6498559e-38 298 232
-0.028204117 0.76599997 0.010744425 1.6498559e-38 299 232
-0.026861066 0.76599997 0.010744425 1.6407403e-38 300 232
-0.025518013 0.76599997 0.010744425 1.6499599e-38 301 232
-0.024111839 0.764 0.010716373 1.6224789e-38 302 232
-0.02271268 0.76200002 0.01068832 1.6317343e-38 303 232
-0.02137664 0.76200002 0.01068832 1.6500655e-38 304 232
-0.0200406 0.76200002 0.01068832 1.6592851e-38 305 232
-0.018680012 0.76099998 0.010674292 1.6593218e-38 306 232
-0.017345725 0.76099998 0.010674292 1.6777609e-38 307 232
-0.015969358 0.759 0.01064624 1.6778681e-38 308 232
-0.014638579 0.759 0.01064624 1.6686486e-38 309 232
-0.013272733 0.75700003 0.010618187 1.6686473e-38 310 232
-0.011913899 0.755 0.010590133 1.6686473e-38 311 232
-0.010590133 0.755 0.010590133 1.6778666e-38 312 232
-0.0092663663 0.755 0.010590133 1.6778666e-38 313 232
-0.0079425992 0.755 0.010590133 1.6686458e-38 314 232
-0.0066188332 0.755 0.010590133 1.6593902e-38 315 232
-0.0052950666 0.755 0.010590133 1.6685372e-38 316 232
-0.0039712996 0.755 0.010590133 1.6593176e-38 317 232
-0.0026440267 0.75400001 0.010576107 1.6593526e-38 318 232
-0.0013220133 0.75400001 0.010576107 1.6317302e-38 319 232
0 0.75400001 0.010576107 1.6500973e-38 320 232
0.0013220133 0.75400001 0.010576107 1.6408779e-38 321 232
0.0026440267 0.75400001 0.010576107 1.6683209e-38 322 232
0.00396604 0.75400001 0.010576107 1.6683209e-38 323 232
0.0052880533 0.75400001 0.010576107 1.6591015e-38 324 232
0.0065925326 0.75199997 0.010548052 1.6591015e-38 325 232
0.0079110395 0.75199997 0.010548052 1.6590656e-38 326 232
0.0092540924 0.75400001 0.010576107 1.6498103e-38 327 232
0.010576107 0.75400001 0.010576107 1.640555e-38 328 232
0.01189812 0.75400001 0.010576107 1.6313356e-38 329 232
0.013220133 0.75400001 0.010576107 1.5945297e-38 330 232
0.014542146 0.75400001 0.010576107 1.5853103e-38 331 232
0.01586416 0.75400001 0.010576107 1.5669073e-38 332 232
0.017186172 0.75400001 0.010576107 1.5669073e-38 333 232
0.018532733 0.755 0.010590133 1.5576879e-38 334 232
0.0198565 0.755 0.010590133 1.5300296e-38 335 232
0.021180267 0.755 0.010590133 1.5207384e-38 336 232
0.022563647 0.75700003 0.010618187 1.5207384e-38 337 232
0.02389092 0.75700003 0.010618187 1.4747491e-38 338 232
0.025284819 0.759 0.01064624 1.4747491e-38 339 232
0.026615599 0.759 0.01064624 1.4561674e-38 340 232
0.028020019 0.76099998 0.010674292 1.4469479e-38 341 232
0.029392879 0.76200002 0.01068832 1.4008872e-38 342 232
0.030728921 0.76200002 0.01068832 1.4101067e-38 343 232
0.032149121 0.764 0.010716373 1.4007815e-38 344 232
0.033488665 0.764 0.010716373 1.4192567e-38 345 232
0.034919381 0.76599997 0.010744425 1.4006778e-38 346 232
0.036404461 0.76899999 0.010786506 1.4652148e-38 347 232
-0.032569919 0.77399999 0.0094995592 1.6592615e-38 296 233
-0.03117251 0.773 0.0094872871 1.5947246e-38 297 233
-0.02966289 0.76899999 0.0094381925 1.6590038e-38 298 233
-0.028314579 0.76899999 0.0094381925 1.6590038e-38 299 233
-0.026896132 0.76700002 0.0094136465 1.6683267e-38 300 233
-0.025518013 0.76599997 0.0094013726 1.6683267e-38 301 233
-0.024111839 0.764 0.0093768267 1.6408104e-38 302 233
-0.022772292 0.764 0.0093768267 1.6408104e-38 303 233
-0.02137664 0.76200002 0.0093522798 1.6316634e-38 304 233
-0.0200406 0.76200002 0.0093522798 1.6501025e-38 305 233
-0.018680012 0.76099998 0.0093400059 1.6226253e-38 306 233
-0.017345725 0.76099998 0.0093400059 1.6318807e-38 307 233
-0.015969358 0.759 0.00931546 1.6595408e-38 308 233
-0.014638579 0.759 0.00931546 1.6964189e-38 309 233
-0.013272733 0.75700003 0.0092909131 1.6596483e-38 310 233
-0.011913899 0.755 0.0092663663 1.6596483e-38 311 233
-0.010590133 0.755 0.0092663663 1.6963428e-38 312 233
-0.0092663663 0.755 0.0092663663 1.6963428e-38 313 233
-0.0079425992 0.755 0.0092663663 1.7330744e-38 314 233
-0.0066188332 0.755 0.0092663663 1.7054517e-38 315 233
-0.0052950666 0.755 0.0092663663 1.723818e-38 316 233
-0.0039712996 0.755 0.0092663663 1.6777201e-38 317 233
-0.0026440267 0.75400001 0.0092540924 1.6869033e-38 318 233
-0.0013220133 0.75400001 0.0092540924 1.6776838e-38 319 233
0 0.75400001 0.0092540924 1.659245e-38 320 233
0.0013220133 0.75400001 0.0092540924 1.6500256e-38 321 233
0.0026440267 0.75400001 0.0092540924 1.6499897e-38 322 233
0.00396604 0.75400001 0.0092540924 1.6499897e-38 323 233
0.0052880533 0.75400001 0.0092540924 1.6499897e-38 324 233
0.0066100666 0.75400001 0.0092540924 1.6315509e-38 325 233
0.00793208 0.75400001 0.0092540924 1.6498462e-38 326 233
0.0092540924 0.75400001 0.0092540924 1.6406268e-38 327 233
0.010576107 0.75400001 0.0092540924 1.6222238e-38 328 233
0.01189812 0.75400001 0.0092540924 1.603785e-38 329 233
0.013220133 0.75400001 0.0092540924 1.5853103e-38 330 233
0.014542146 0.75400001 0.0092540924 1.5669073e-38 331 233
0.01586416 0.75400001 0.0092540924 1.5485402e-38 332 233
0.017186172 0.75400001 0.0092540924 1.5485402e-38 333 233
0.018532733 0.755 0.0092663663 1.5301372e-38 334 233
0.0198565 0.755 0.0092663663 1.5116625e-38 335 233
0.021236373 0.75700003 0.0092909131 1.5207384e-38 336 233
0.022563647 0.75700003 0.0092909131 1.5207384e-38 337 233
0.023954039 0.759 0.00931546 1.4839692e-38 338 233
0.025284819 0.759 0.00931546 1.4654942e-38 339 233
0.026685731 0.76099998 0.0093400059 1.4744989e-38 340 233
0.028020019 0.76099998 0.0093400059 1.4652794e-38 341 233
0.029392879 0.76200002 0.0093522798 1.4284736e-38 342 233
0.030728921 0.76200002 0.0093522798 1.4192181e-38 343 233
0.032149121 0.764 0.0093768267 1.4008181e-38 344 233
0.033576332 0.76599997 0.0094013726 1.4100737e-38 345 233
0.034919381 0.76599997 0.0094013726 1.4008576e-38 346 233
0.036404461 0.76899999 0.0094381925 1.4469554e-38 347 233
0.037850961 0.77100003 0.0094627403 1.5667785e-38 348 233
-0.03117251 0.773 0.0081319595 1.6039093e-38 297 234
-0.029740039 0.77100003 0.0081109209 1.6589691e-38 298 234
-0.028314579 0.76899999 0.0080898795 1.6681886e-38 299 234
-0.026896132 0.76700002 0.00806884 1.6591458e-38 300 234
-0.025518013 0.76599997 0.0080583189 1.6591458e-38 301 234
-0.024111839 0.764 0.0080372803 1.6500322e-38 302 234
-0.022772292 0.764 0.0080372803 1.631593e-38 303 234
-0.02137664 0.76200002 0.0080162399 1.6224085e-38 304 234
-0.0200406 0.76200002 0.0080162399 1.6316639e-38 305 234
-0.018680012 0.76099998 0.0080057196 1.6499613e-38 306 234
-0.017345725 0.76099998 0.0080057196 1.6868754e-38 307 234
-0.015969358 0.759 0.0079846792 1.6411758e-38 308 234
-0.014638579 0.759 0.0079846792 1.6872736e-38 309 234
-0.013272733 0.75700003 0.0079636406 1.6691235e-38 310 234
-0.011913899 0.755 0.0079425992 1.678379e-38 311 234
-0.010590133 0.755 0.0079425992 1.7517758e-38 312 234
-0.0092663663 0.755 0.0079425992 1.7609954e-38 313 234
-0.0079425992 0.755 0.0079425992 1.7792155e-38 314 234
-0.0066188332 0.755 0.0079425992 1.6962035e-38 315 234
-0.0052950666 0.755 0.0079425992 1.7237867e-38 316 234
-0.00396604 0.75400001 0.00793208 1.696128e-38 317 234
-0.0026440267 0.75400001 0.00793208 1.6685748e-38 318 234
-0.0013220133 0.75400001 0.00793208 1.640916e-38 319 234
0 0.75400001 0.00793208 1.6593173e-38 320 234
0.0013220133 0.75400001 0.00793208 1.6132555e-38 321 234
0.0026440267 0.75400001 0.00793208 1.6682853e-38 322 234
0.00396604 0.75400001 0.00793208 1.6590658e-38 323 234
0.0052880533 0.75400001 0.00793208 1.6589939e-38 324 234
0.0066100666 0.75400001 0.00793208 1.6589939e-38 325 234
0.00793208 0.75400001 0.00793208 1.640555e-38 326 234
0.0092540924 0.75400001 0.00793208 1.640555e-38 327 234
0.010576107 0.75400001 0.00793208 1.6128968e-38 328 234
0.01189812 0.75400001 0.00793208 1.6128968e-38 329 234
0.013220133 0.75400001 0.00793208 1.5852744e-38 330 234
0.014542146 0.75400001 0.00793208 1.5852744e-38 331 234
0.01586416 0.75400001 0.00793208 1.5485762e-38 332 234
0.017208965 0.755 0.0079425992 1.5301372e-38 333 234
0.018532733 0.755 0.0079425992 1.5300655e-38 334 234
0.0198565 0.755 0.0079425992 1.5116266e-38 335 234
0.021236373 0.75700003 0.0079636406 1.5023713e-38 336 234
0.02262326 0.759 0.0079846792 1.4931519e-38 337 234
0.023954039 0.759 0.0079846792 1.4838254e-38 338 234
0.025351444 0.76099998 0.0080057196 1.4838254e-38 339 234
0.026685731 0.76099998 0.0080057196 1.4469126e-38 340 234
0.028020019 0.76099998 0.0080057196 1.4376928e-38 341 234
0.029392879 0.76200002 0.0080162399 1.4192181e-38 342 234
0.030728921 0.76200002 0.0080162399 1.4192181e-38 343 234
0.032149121 0.764 0.0080372803 1.38245e-38 344 234
0.033576332 0.76599997 0.0080583189 1.4101087e-38 345 234
0.034919381 0.76599997 0.0080583189 1.4007131e-38 346 234
0.036404461 0.76899999 0.0080898795 1.4652501e-38 347 234
0.037850961 0.77100003 0.0081109209 1.5759981e-38 348 234
0.03920278 0.77100003 0.0081109209 1.6497547e-38 349 234
-0.03117251 0.773 0.0067766332 1.585579e-38 297 235
-0.029740039 0.77100003 0.0067590997 1.668118e-38 298 235
-0.028314579 0.76899999 0.0067415666 1.6588985e-38 299 235
-0.026896132 0.76700002 0.006724033 1.6314884e-38 300 235
-0.025551327 0.76700002 0.006724033 1.6498915e-38 301 235
-0.024174958 0.76599997 0.0067152665 1.6316653e-38 302 235
-0.022772292 0.764 0.006697733 1.6224456e-38 303 235
-0.021432746 0.764 0.006697733 1.6316286e-38 304 235
-0.0200406 0.76200002 0.0066801999 1.6224091e-38 305 235
-0.018680012 0.76099998 0.0066714329 1.6223752e-38 306 235
-0.017345725 0.76099998 0.0066714329 1.6500697e-38 307 235
-0.015969358 0.759 0.0066538998 1.6502878e-38 308 235
-0.014638579 0.759 0.0066538998 1.687202e-38 309 235
-0.013272733 0.75700003 0.0066363667 1.6782006e-38 310 235
-0.011913899 0.755 0.0066188332 1.7427376e-38 311 235
-0.010590133 0.755 0.0066188332 1.7611415e-38 312 235
-0.0092663663 0.755 0.0066188332 1.7703611e-38 313 235
-0.0079425992 0.755 0.0066188332 1.7885812e-38 314 235
-0.0066188332 0.755 0.0066188332 1.6687269e-38 315 235
-0.0052950666 0.755 0.0066188332 1.6594678e-38 316 235
-0.00396604 0.75400001 0.0066100666 1.6226256e-38 317 235
-0.0026440267 0.75400001 0.0066100666 1.6410259e-38 318 235
-0.0013220133 0.75400001 0.0066100666 1.6133312e-38 319 235
0 0.75400001 0.0066100666 1.6408794e-38 320 235
0.0013220133 0.75400001 0.0066100666 1.6131847e-38 321 235
0.0026440267 0.75400001 0.0066100666 1.622368e-38 322 235
0.00396604 0.75400001 0.0066100666 1.6131484e-38 323 235
0.0052880533 0.75400001 0.0066100666 1.6222598e-38 324 235
0.0066100666 0.75400001 0.0066100666 1.6130403e-38 325 235
0.00793208 0.75400001 0.0066100666 1.6222238e-38 326 235
0.0092540924 0.75400001 0.0066100666 1.603785e-38 327 235
0.010576107 0.75400001 0.0066100666 1.6037491e-38 328 235
0.01189812 0.75400001 0.0066100666 1.5945297e-38 329 235
0.013220133 0.75400001 0.0066100666 1.5669432e-38 330 235
0.014542146 0.75400001 0.0066100666 1.5669432e-38 331 235
