# .PCD v.7 - Point Cloud Data file format
FIELDS x y z rgb imX imY
SIZE 4 4 4 4 4 4
TYPE F F F F F F
COUNT 1 1 1 1 1 1
WIDTH 854
HEIGHT 1
VIEWPOINT 0 0 0 1 0 0 0
POINTS 854
DATA ascii
-0.0026440267 0.75400001 0.01189812 1.6592091e-38 318 231
-0.0013220133 0.75400001 0.01189812 1.6776122e-38 319 231
0 0.75400001 0.01189812 1.6592091e-38 320 231
0.0013220133 0.75400001 0.01189812 1.6592091e-38 321 231
0.0026440267 0.75400001 0.01189812 1.6775045e-38 322 231
0.0039555198 0.75199997 0.011866559 1.6959075e-38 323 231
0.0052740262 0.75199997 0.011866559 1.6775762e-38 324 231
0.0065925326 0.75199997 0.011866559 1.6683568e-38 325 231
0.0079110395 0.75199997 0.011866559 1.6682492e-38 326 231
0.0092540924 0.75400001 0.01189812 1.6590298e-38 327 231
0.010576107 0.75400001 0.01189812 1.640555e-38 328 231
0.01189812 0.75400001 0.01189812 1.6313356e-38 329 231
0.013220133 0.75400001 0.01189812 1.6036774e-38 330 231
0.014542146 0.75400001 0.01189812 1.5944579e-38 331 231
0.015885198 0.755 0.011913899 1.5669073e-38 332 231
0.017208965 0.755 0.011913899 1.5669073e-38 333 231
0.018532733 0.755 0.011913899 1.5484326e-38 334 231
0.0198565 0.755 0.011913899 1.5299937e-38 335 231
0.021180267 0.755 0.011913899 1.5207743e-38 336 231
0.022563647 0.75700003 0.01194546 1.5023713e-38 337 231
0.02389092 0.75700003 0.01194546 1.4839683e-38 338 231
0.025284819 0.759 0.01197702 1.4655295e-38 339 231
0.026615599 0.759 0.01197702 1.4838249e-38 340 231
0.028020019 0.76099998 0.012008579 1.465386e-38 341 231
0.029392879 0.76200002 0.01202436 1.4376563e-38 342 231
0.030728921 0.76200002 0.01202436 1.4284367e-38 343 231
0.032149121 0.764 0.01205592 1.400889e-38 344 231
0.033488665 0.764 0.01205592 1.4101087e-38 345 231
0.034919381 0.76599997 0.012087479 1.3823099e-38 346 231
0.036309779 0.76700002 0.01210326 1.4652501e-38 347 231
-0.032569919 0.77399999 0.01085664 1.6499676e-38 296 232
-0.031091858 0.77100003 0.01081456 1.6315643e-38 297 232
-0.029585747 0.76700002 0.010758453 1.6132638e-38 298 232
-0.028204117 0.76599997 0.010744425 1.5948245e-38 299 232
-0.026861066 0.76599997 0.010744425 1.6224794e-38 300 232
-0.025451386 0.764 0.010716373 1.6224794e-38 301 232
-0.024111839 0.764 0.010716373 1.6225142e-38 302 232
-0.02271268 0.76200002 0.01068832 1.6317337e-38 303 232
-0.02137664 0.76200002 0.01068832 1.6683967e-38 304 232
-0.0200406 0.76200002 0.01068832 1.686836e-38 305 232
-0.018680012 0.76099998 0.010674292 1.6685416e-38 306 232
-0.017345725 0.76099998 0.010674292 1.6869808e-38 307 232
-0.015969358 0.759 0.01064624 1.6870164e-38 308 232
-0.014638579 0.759 0.01064624 1.6870164e-38 309 232
-0.013272733 0.75700003 0.010618187 1.6870867e-38 310 232
-0.011913899 0.755 0.010590133 1.6686117e-38 311 232
-0.010590133 0.755 0.010590133 1.6869414e-38 312 232
-0.0092663663 0.755 0.010590133 1.6869414e-38 313 232
-0.0079425992 0.755 0.010590133 1.6777567e-38 314 232
-0.0066188332 0.755 0.010590133 1.6777567e-38 315 232
-0.0052950666 0.755 0.010590133 1.6960519e-38 316 232
-0.0039712996 0.755 0.010590133 1.6867965e-38 317 232
-0.0026440267 0.75400001 0.010576107 1.6593173e-38 318 232
-0.0013220133 0.75400001 0.010576107 1.6409142e-38 319 232
0 0.75400001 0.010576107 1.659245e-38 320 232
0.0013220133 0.75400001 0.010576107 1.6408062e-38 321 232
0.0026440267 0.75400001 0.010576107 1.6683209e-38 322 232
0.00396604 0.75400001 0.010576107 1.6683209e-38 323 232
0.0052740262 0.75199997 0.010548052 1.6683209e-38 324 232
0.0065925326 0.75199997 0.010548052 1.6683209e-38 325 232
0.0079110395 0.75199997 0.010548052 1.631515e-38 326 232
0.0092540924 0.75400001 0.010576107 1.631515e-38 327 232
0.010576107 0.75400001 0.010576107 1.6405197e-38 328 232
0.01189812 0.75400001 0.010576107 1.6312643e-38 329 232
0.013220133 0.75400001 0.010576107 1.5944579e-38 330 232
0.014542146 0.75400001 0.010576107 1.5852385e-38 331 232
0.01586416 0.75400001 0.010576107 1.5577237e-38 332 232
0.017208965 0.755 0.010590133 1.5577237e-38 333 232
0.018532733 0.755 0.010590133 1.5393925e-38 334 232
0.0198565 0.755 0.010590133 1.5209178e-38 335 232
0.021180267 0.755 0.010590133 1.4932954e-38 336 232
0.022563647 0.75700003 0.010618187 1.4748565e-38 337 232
0.02389092 0.75700003 0.010618187 1.4839325e-38 338 232
0.025284819 0.759 0.01064624 1.4839325e-38 339 232
0.026615599 0.759 0.01064624 1.4654226e-38 340 232
0.028020019 0.76099998 0.010674292 1.4469835e-38 341 232
0.029392879 0.76200002 0.01068832 1.410107e-38 342 232
0.030728921 0.76200002 0.01068832 1.410107e-38 343 232
0.032149121 0.764 0.010716373 1.4008537e-38 344 232
0.033488665 0.764 0.010716373 1.419293e-38 345 232
0.034919381 0.76599997 0.010744425 1.3822743e-38 346 232
0.036404461 0.76899999 0.010786506 1.4744699e-38 347 232
-0.030930554 0.76700002 0.0094136465 1.6223092e-38 297 233
-0.029585747 0.76700002 0.0094136465 1.6591092e-38 298 233
-0.028204117 0.76599997 0.0094013726 1.6591092e-38 299 233
-0.026861066 0.76599997 0.0094013726 1.6224794e-38 300 233
-0.025518013 0.76599997 0.0094013726 1.6224794e-38 301 233
-0.024111839 0.764 0.0093768267 1.6408104e-38 302 233
-0.02271268 0.76200002 0.0093522798 1.6500299e-38 303 233
-0.02137664 0.76200002 0.0093522798 1.631736e-38 304 233
-0.0200406 0.76200002 0.0093522798 1.6501751e-38 305 233
-0.018680012 0.76099998 0.0093400059 1.6318451e-38 306 233
-0.017345725 0.76099998 0.0093400059 1.6502482e-38 307 233
-0.015969358 0.759 0.00931546 1.6687234e-38 308 233
-0.014638579 0.759 0.00931546 1.6871625e-38 309 233
-0.013272733 0.75700003 0.0092909131 1.6872326e-38 310 233
-0.01194546 0.75700003 0.0092909131 1.6503542e-38 311 233
-0.010590133 0.755 0.0092663663 1.6595372e-38 312 233
-0.0092663663 0.755 0.0092663663 1.6963796e-38 313 233
-0.0079425992 0.755 0.0092663663 1.7237839e-38 314 233
-0.0066188332 0.755 0.0092663663 1.6869417e-38 315 233
-0.0052950666 0.755 0.0092663663 1.7236733e-38 316 233
-0.0039712996 0.755 0.0092663663 1.7052704e-38 317 233
-0.0026440267 0.75400001 0.0092540924 1.668572e-38 318 233
-0.0013220133 0.75400001 0.0092540924 1.6593167e-38 319 233
0 0.75400001 0.0092540924 1.659245e-38 320 233
0.0013220133 0.75400001 0.0092540924 1.6408062e-38 321 233
0.0026440267 0.75400001 0.0092540924 1.6407344e-38 322 233
0.00396604 0.75400001 0.0092540924 1.6591374e-38 323 233
0.0052740262 0.75199997 0.0092295464 1.6224391e-38 324 233
0.0065925326 0.75199997 0.0092295464 1.6132196e-38 325 233
0.0079110395 0.75199997 0.0092295464 1.6406271e-38 326 233
0.0092540924 0.75400001 0.0092540924 1.6314075e-38 327 233
0.010576107 0.75400001 0.0092540924 1.6129685e-38 328 233
0.01189812 0.75400001 0.0092540924 1.6037491e-38 329 233
0.013220133 0.75400001 0.0092540924 1.5853461e-38 330 233
0.014542146 0.75400001 0.0092540924 1.5669073e-38 331 233
0.01586416 0.75400001 0.0092540924 1.5393925e-38 332 233
0.017208965 0.755 0.0092663663 1.5393925e-38 333 233
0.018532733 0.755 0.0092663663 1.5301372e-38 334 233
0.0198565 0.755 0.0092663663 1.5116984e-38 335 233
0.021180267 0.755 0.0092663663 1.5299578e-38 336 233
0.022563647 0.75700003 0.0092909131 1.5023354e-38 337 233
0.023954039 0.759 0.00931546 1.4838607e-38 338 233
0.025284819 0.759 0.00931546 1.4838607e-38 339 233
0.026615599 0.759 0.00931546 1.4653873e-38 340 233
0.028020019 0.76099998 0.0093400059 1.4561677e-38 341 233
0.029392879 0.76200002 0.0093522798 1.4193266e-38 342 233
0.030728921 0.76200002 0.0093522798 1.410107e-38 343 233
0.032149121 0.764 0.0093768267 1.4008181e-38 344 233
0.033576332 0.76599997 0.0094013726 1.4100737e-38 345 233
0.034919381 0.76599997 0.0094013726 1.4008579e-38 346 233
0.036309779 0.76700002 0.0094136465 1.4285167e-38 347 233
0.03775277 0.76899999 0.0094381925 1.5761427e-38 348 233
-0.030930554 0.76700002 0.00806884 1.6222388e-38 297 234
-0.029585747 0.76700002 0.00806884 1.6498559e-38 298 234
-0.02824094 0.76700002 0.00806884 1.6590754e-38 299 234
-0.026861066 0.76599997 0.0080583189 1.6317022e-38 300 234
-0.025518013 0.76599997 0.0080583189 1.6317022e-38 301 234
-0.024111839 0.764 0.0080372803 1.6224807e-38 302 234
-0.02271268 0.76200002 0.0080162399 1.6224807e-38 303 234
-0.02137664 0.76200002 0.0080162399 1.6407756e-38 304 234
-0.0200406 0.76200002 0.0080162399 1.6592149e-38 305 234
-0.018680012 0.76099998 0.0080057196 1.6592164e-38 306 234
-0.017345725 0.76099998 0.0080057196 1.6868751e-38 307 234
-0.015969358 0.759 0.0079846792 1.6594705e-38 308 234
-0.014638579 0.759 0.0079846792 1.7147878e-38 309 234
-0.013272733 0.75700003 0.0079636406 1.7150045e-38 310 234
-0.011913899 0.755 0.0079425992 1.7242242e-38 311 234
-0.010590133 0.755 0.0079425992 1.7241162e-38 312 234
-0.0092663663 0.755 0.0079425992 1.7333357e-38 313 234
-0.0079425992 0.755 0.0079425992 1.7607761e-38 314 234
-0.0066188332 0.755 0.0079425992 1.7054587e-38 315 234
-0.0052950666 0.755 0.0079425992 1.6963431e-38 316 234
-0.00396604 0.75400001 0.00793208 1.6686486e-38 317 234
-0.0026440267 0.75400001 0.00793208 1.6685748e-38 318 234
-0.0013220133 0.75400001 0.00793208 1.640916e-38 319 234
0 0.75400001 0.00793208 1.6409864e-38 320 234
0.0013220133 0.75400001 0.00793208 1.5948885e-38 321 234
0.0026440267 0.75400001 0.00793208 1.6406985e-38 322 234
0.00396604 0.75400001 0.00793208 1.6314791e-38 323 234
0.0052740262 0.75199997 0.0079110395 1.6130761e-38 324 234
0.0065925326 0.75199997 0.0079110395 1.6130761e-38 325 234
0.0079110395 0.75199997 0.0079110395 1.6222598e-38 326 234
0.0092540924 0.75400001 0.00793208 1.6222598e-38 327 234
0.010576107 0.75400001 0.00793208 1.6129687e-38 328 234
0.01189812 0.75400001 0.00793208 1.6037132e-38 329 234
0.013220133 0.75400001 0.00793208 1.5945297e-38 330 234
0.014542146 0.75400001 0.00793208 1.5852744e-38 331 234
0.015885198 0.755 0.0079425992 1.5393566e-38 332 234
0.017208965 0.755 0.0079425992 1.5393566e-38 333 234
0.018532733 0.755 0.0079425992 1.5392507e-38 334 234
0.0198565 0.755 0.0079425992 1.5300311e-38 335 234
0.021236373 0.75700003 0.0079636406 1.5115567e-38 336 234
0.022563647 0.75700003 0.0079636406 1.4839339e-38 337 234
0.023954039 0.759 0.0079846792 1.4747143e-38 338 234
0.025284819 0.759 0.0079846792 1.4654589e-38 339 234
0.026685731 0.76099998 0.0080057196 1.4469128e-38 340 234
0.028020019 0.76099998 0.0080057196 1.4469128e-38 341 234
0.029392879 0.76200002 0.0080162399 1.4192917e-38 342 234
0.030728921 0.76200002 0.0080162399 1.410072e-38 343 234
0.032149121 0.764 0.0080372803 1.3824872e-38 344 234
0.033576332 0.76599997 0.0080583189 1.4009264e-38 345 234
0.034919381 0.76599997 0.0080583189 1.3823113e-38 346 234
0.036309779 0.76700002 0.00806884 1.4560678e-38 347 234
0.03775277 0.76899999 0.0080898795 1.603694e-38 348 234
0.039101087 0.76899999 0.0080898795 1.6590114e-38 349 234
-0.029585747 0.76700002 0.006724033 1.6497492e-38 298 235
-0.02824094 0.76700002 0.006724033 1.6589688e-38 299 235
-0.026861066 0.76599997 0.0067152665 1.631595e-38 300 235
-0.025518013 0.76599997 0.0067152665 1.6408146e-38 301 235
-0.024111839 0.764 0.006697733 1.6316651e-38 302 235
-0.02271268 0.76200002 0.0066801999 1.6224454e-38 303 235
-0.02137664 0.76200002 0.0066801999 1.631593e-38 304 235
-0.0200406 0.76200002 0.0066801999 1.631593e-38 305 235
-0.018680012 0.76099998 0.0066714329 1.6132638e-38 306 235
-0.017345725 0.76099998 0.0066714329 1.650106e-38 307 235
-0.015969358 0.759 0.0066538998 1.6227382e-38 308 235
-0.014638579 0.759 0.0066538998 1.6872752e-38 309 235
-0.013272733 0.75700003 0.0066363667 1.7058242e-38 310 235
-0.011913899 0.755 0.0066188332 1.7427023e-38 311 235
-0.010590133 0.755 0.0066188332 1.7427376e-38 312 235
-0.0092663663 0.755 0.0066188332 1.7519573e-38 313 235
-0.0079425992 0.755 0.0066188332 1.7518456e-38 314 235
-0.0066188332 0.755 0.0066188332 1.6596498e-38 315 235
-0.0052950666 0.755 0.0066188332 1.6870526e-38 316 235
-0.00396604 0.75400001 0.0066100666 1.6409908e-38 317 235
-0.0026440267 0.75400001 0.0066100666 1.6501727e-38 318 235
-0.0013220133 0.75400001 0.0066100666 1.6225142e-38 319 235
0 0.75400001 0.0066100666 1.6409157e-38 320 235
0.0013220133 0.75400001 0.0066100666 1.5948538e-38 321 235
0.0026440267 0.75400001 0.0066100666 1.6040005e-38 322 235
0.00396604 0.75400001 0.0066100666 1.5947809e-38 323 235
0.0052740262 0.75199997 0.0065925326 1.6038933e-38 324 235
0.0065925326 0.75199997 0.0065925326 1.5946737e-38 325 235
0.00793208 0.75400001 0.0066100666 1.6130052e-38 326 235
0.0092540924 0.75400001 0.0066100666 1.5946021e-38 327 235
0.010576107 0.75400001 0.0066100666 1.585382e-38 328 235
0.01189812 0.75400001 0.0066100666 1.585382e-38 329 235
0.013220133 0.75400001 0.0066100666 1.5669432e-38 330 235
0.014542146 0.75400001 0.0066100666 1.5577237e-38 331 235
0.015885198 0.755 0.0066188332 1.5301734e-38 332 235
0.017208965 0.755 0.0066188332 1.5301734e-38 333 235
0.018532733 0.755 0.0066188332 1.5117002e-38 334 235
0.0198565 0.755 0.0066188332 1.5024447e-38 335 235
0.021236373 0.75700003 0.0066363667 1.5207044e-38 336 235
0.02262326 0.759 0.0066538998 1.4930455e-38 337 235
0.023954039 0.759 0.0066538998 1.4929381e-38 338 235
0.025351444 0.76099998 0.0066714329 1.4744989e-38 339 235
0.026685731 0.76099998 0.0066714329 1.4469128e-38 340 235
0.028056841 0.76200002 0.0066801999 1.4284736e-38 341 235
0.029392879 0.76200002 0.0066801999 1.400924e-38 342 235
0.030728921 0.76200002 0.0066801999 1.400924e-38 343 235
0.032149121 0.764 0.006697733 1.3917069e-38 344 235
0.033576332 0.76599997 0.0067152665 1.410146e-38 345 235
0.034919381 0.76599997 0.0067152665 1.3823479e-38 346 235
0.036309779 0.76700002 0.006724033 1.4653598e-38 347 235
0.037654586 0.76700002 0.006724033 1.6498644e-38 348 235
0.039101087 0.76899999 0.0067415666 1.659084e-38 349 235
-0.02824094 0.76700002 0.0053792265 1.6496786e-38 299 236
-0.026896132 0.76700002 0.0053792265 1.6314528e-38 300 236
-0.025518013 0.76599997 0.0053722127 1.6498559e-38 301 236
-0.024174958 0.76599997 0.0053722127 1.6316669e-38 302 236
-0.022772292 0.764 0.0053581866 1.6132638e-38 303 236
-0.02137664 0.76200002 0.0053441599 1.6223735e-38 304 236
-0.0200406 0.76200002 0.0053441599 1.6131539e-38 305 236
-0.018680012 0.76099998 0.0053371461 1.6223387e-38 306 236
-0.017345725 0.76099998 0.0053371461 1.6591811e-38 307 236
-0.016011439 0.76099998 0.0053371461 1.6134468e-38 308 236
-0.014638579 0.759 0.0053231199 1.668764e-38 309 236
-0.013272733 0.75700003 0.0053090933 1.6780579e-38 310 236
-0.01194546 0.75700003 0.0053090933 1.7425948e-38 311 236
-0.010590133 0.755 0.0052950666 1.7519217e-38 312 236
-0.0092663663 0.755 0.0052950666 1.7519217e-38 313 236
-0.0079425992 0.755 0.0052950666 1.7057846e-38 314 236
-0.0066188332 0.755 0.0052950666 1.6228086e-38 315 236
-0.0052880533 0.75400001 0.0052880533 1.6318451e-38 316 236
-0.00396604 0.75400001 0.0052880533 1.6041864e-38 317 236
-0.0026440267 0.75400001 0.0052880533 1.6134045e-38 318 236
-0.0013220133 0.75400001 0.0052880533 1.6041848e-38 319 236
0 0.75400001 0.0052880533 1.6224789e-38 320 236
0.0013220133 0.75400001 0.0052880533 1.5948202e-38 321 236
0.0026440267 0.75400001 0.0052880533 1.5855633e-38 322 236
0.00396604 0.75400001 0.0052880533 1.5763438e-38 323 236
0.0052880533 0.75400001 0.0052880533 1.6129696e-38 324 236
0.0066100666 0.75400001 0.0052880533 1.585347e-38 325 236
0.00793208 0.75400001 0.0052880533 1.6037135e-38 326 236
0.0092540924 0.75400001 0.0052880533 1.5944938e-38 327 236
0.010576107 0.75400001 0.0052880533 1.557796e-38 328 236
0.01189812 0.75400001 0.0052880533 1.557796e-38 329 236
0.013237666 0.755 0.0052950666 1.5486128e-38 330 236
0.014561433 0.755 0.0052950666 1.5393932e-38 331 236
0.015885198 0.755 0.0052950666 1.5301383e-38 332 236
0.017208965 0.755 0.0052950666 1.5301383e-38 333 236
0.018532733 0.755 0.0052950666 1.5116646e-38 334 236
0.0198565 0.755 0.0052950666 1.4932255e-38 335 236
0.021236373 0.75700003 0.0053090933 1.4839703e-38 336 236
0.02262326 0.759 0.0053231199 1.4747506e-38 337 236
0.024017159 0.76099998 0.0053371461 1.4653873e-38 338 236
0.025351444 0.76099998 0.0053371461 1.4469481e-38 339 236
0.026685731 0.76099998 0.0053371461 1.4193613e-38 340 236
0.028056841 0.76200002 0.0053441599 1.4193613e-38 341 236
0.029470026 0.764 0.0053581866 1.3825204e-38 342 236
0.030809574 0.764 0.0053581866 1.4009235e-38 343 236
0.032149121 0.764 0.0053581866 1.3917069e-38 344 236
0.033576332 0.76599997 0.0053722127 1.410146e-38 345 236
0.034919381 0.76599997 0.0053722127 1.4007522e-38 346 236
0.036309779 0.76700002 0.0053792265 1.5206066e-38 347 236
0.037654586 0.76700002 0.0053792265 1.7144379e-38 348 236
0.039101087 0.76899999 0.0053932532 1.6683761e-38 349 236
-0.028388219 0.77100003 0.0040554604 1.6220578e-38 299 237
-0.026896132 0.76700002 0.00403442 1.6220901e-38 300 237
-0.025551327 0.76700002 0.00403442 1.6405293e-38 301 237
-0.024174958 0.76599997 0.0040291594 1.6223757e-38 302 237
-0.022772292 0.764 0.0040186401 1.6223757e-38 303 237
-0.021432746 0.764 0.0040186401 1.6223382e-38 304 237
-0.0200406 0.76200002 0.0040081199 1.603899e-38 305 237
-0.01870456 0.76200002 0.0040081199 1.6038993e-38 306 237
-0.017345725 0.76099998 0.0040028598 1.6223384e-38 307 237
-0.016011439 0.76099998 0.0040028598 1.5949704e-38 308 237
-0.014677152 0.76099998 0.0040028598 1.6410682e-38 309 237
-0.013272733 0.75700003 0.0039818203 1.6686924e-38 310 237
-0.01194546 0.75700003 0.0039818203 1.7055348e-38 311 237
-0.010590133 0.755 0.0039712996 1.6872739e-38 312 237
-0.0092663663 0.755 0.0039712996 1.6780544e-38 313 237
-0.0079425992 0.755 0.0039712996 1.6779795e-38 314 237
-0.0066188332 0.755 0.0039712996 1.6318817e-38 315 237
-0.0052880533 0.75400001 0.00396604 1.6409918e-38 316 237
-0.00396604 0.75400001 0.00396604 1.6041494e-38 317 237
-0.0026440267 0.75400001 0.00396604 1.5950015e-38 318 237
-0.0013220133 0.75400001 0.00396604 1.5673788e-38 319 237
0 0.75400001 0.00396604 1.60404e-38 320 237
0.0013220133 0.75400001 0.00396604 1.5763453e-38 321 237
0.0026440267 0.75400001 0.00396604 1.5946756e-38 322 237
0.00396604 0.75400001 0.00396604 1.567017e-38 323 237
0.0052880533 0.75400001 0.00396604 1.585347e-38 324 237
0.0066100666 0.75400001 0.00396604 1.5761273e-38 325 237
0.00793208 0.75400001 0.00396604 1.5852744e-38 326 237
0.0092540924 0.75400001 0.00396604 1.5852744e-38 327 237
0.010576107 0.75400001 0.00396604 1.5485761e-38 328 237
0.01189812 0.75400001 0.00396604 1.5485761e-38 329 237
0.013237666 0.755 0.0039712996 1.5301736e-38 330 237
0.014561433 0.755 0.0039712996 1.5117705e-38 331 237
0.015885198 0.755 0.0039712996 1.5117715e-38 332 237
0.017208965 0.755 0.0039712996 1.4933324e-38 333 237
0.018532733 0.755 0.0039712996 1.4932252e-38 334 237
0.019909101 0.75700003 0.0039818203 1.4840056e-38 335 237
0.02129248 0.759 0.0039923396 1.4839339e-38 336 237
0.02262326 0.759 0.0039923396 1.4654589e-38 337 237
0.024017159 0.76099998 0.0040028598 1.4561677e-38 338 237
0.025351444 0.76099998 0.0040028598 1.4469481e-38 339 237
0.0267208 0.76200002 0.0040081199 1.4101421e-38 340 237
0.028056841 0.76200002 0.0040081199 1.4101421e-38 341 237
0.029470026 0.764 0.0040186401 1.3825206e-38 342 237
0.030809574 0.764 0.0040186401 1.4009238e-38 343 237
0.032233275 0.76599997 0.0040291594 1.3824516e-38 344 237
0.033576332 0.76599997 0.0040291594 1.4101463e-38 345 237
0.034919381 0.76599997 0.0040291594 1.4101523e-38 346 237
0.036262438 0.76599997 0.0040291594 1.5299707e-38 347 237
0.037654586 0.76700002 0.00403442 1.6590857e-38 348 237
0.039101087 0.76899999 0.0040449398 1.6222433e-38 349 237
-0.028388219 0.77100003 0.0027036399 1.6036199e-38 299 238
-0.027036399 0.77100003 0.0027036399 1.6036517e-38 300 238
-0.025551327 0.76700002 0.0026896133 1.6220548e-38 301 238
-0.024206521 0.76700002 0.0026896133 1.5947536e-38 302 238
-0.022831906 0.76599997 0.0026861064 1.5947536e-38 303 238
-0.021432746 0.764 0.0026790933 1.6131192e-38 304 238
-0.0200406 0.76200002 0.00267208 1.5946442e-38 305 238
-0.01870456 0.76200002 0.00267208 1.6037918e-38 306 238
-0.017345725 0.76099998 0.0026685731 1.6222308e-38 307 238
-0.016011439 0.76099998 0.0026685731 1.57653e-38 308 238
-0.014638579 0.759 0.00266156 1.5949691e-38 309 238
-0.0133078 0.759 0.00266156 1.6317751e-38 310 238
-0.01194546 0.75700003 0.0026545466 1.6501782e-38 311 238
-0.010590133 0.755 0.0026475333 1.6226256e-38 312 238
-0.0092663663 0.755 0.0026475333 1.6041864e-38 313 238
-0.0079425992 0.755 0.0026475333 1.6317723e-38 314 238
-0.0066188332 0.755 0.0026475333 1.6409918e-38 315 238
-0.0052950666 0.755 0.0026475333 1.6318079e-38 316 238
-0.0039712996 0.755 0.0026475333 1.6133689e-38 317 238
-0.0026475333 0.755 0.0026475333 1.6041842e-38 318 238
-0.0013237667 0.755 0.0026475333 1.5857451e-38 319 238
0 0.755 0.0026475333 1.5948204e-38 320 238
0.0013220133 0.75400001 0.0026440267 1.5763453e-38 321 238
0.0026440267 0.75400001 0.0026440267 1.5670892e-38 322 238
0.00396604 0.75400001 0.0026440267 1.5394665e-38 323 238
0.0052880533 0.75400001 0.0026440267 1.5577958e-38 324 238
0.0066100666 0.75400001 0.0026440267 1.5393566e-38 325 238
0.00793208 0.75400001 0.0026440267 1.5577237e-38 326 238
0.0092540924 0.75400001 0.0026440267 1.5485043e-38 327 238
0.010576107 0.75400001 0.0026440267 1.5577237e-38 328 238
0.011913899 0.755 0.0026475333 1.5577237e-38 329 238
0.013237666 0.755 0.0026475333 1.502587e-38 330 238
0.014561433 0.755 0.0026475333 1.502587e-38 331 238
0.015885198 0.755 0.0026475333 1.4932971e-38 332 238
0.017208965 0.755 0.0026475333 1.474894e-38 333 238
0.018581826 0.75700003 0.0026545466 1.4747862e-38 334 238
0.019909101 0.75700003 0.0026545466 1.4655308e-38 335 238
0.02129248 0.759 0.00266156 1.4655308e-38 336 238
0.022682872 0.76099998 0.0026685731 1.4379081e-38 337 238
0.024017159 0.76099998 0.0026685731 1.4469844e-38 338 238
0.02538476 0.76200002 0.00267208 1.4193616e-38 339 238
0.0267208 0.76200002 0.00267208 1.4101421e-38 340 238
0.028056841 0.76200002 0.00267208 1.4009225e-38 341 238
0.029470026 0.764 0.0026790933 1.3825206e-38 342 238
0.030890226 0.76599997 0.0026861064 1.4009238e-38 343 238
0.032233275 0.76599997 0.0026861064 1.3916718e-38 344 238
0.033620168 0.76700002 0.0026896133 1.4285141e-38 345 238
0.034919381 0.76599997 0.0026861064 1.4562508e-38 346 238
0.036262438 0.76599997 0.0026861064 1.5484823e-38 347 238
0.037654586 0.76700002 0.0026896133 1.5945134e-38 348 238
0.038999394 0.76700002 0.0026896133 1.5945134e-38 349 238
-0.028388219 0.77100003 0.00135182 1.5117132e-38 299 239
-0.027036399 0.77100003 0.00135182 1.5578818e-38 300 239
-0.025617953 0.76899999 0.0013483133 1.6039796e-38 301 239
-0.024206521 0.76700002 0.0013448066 1.622384e-38 302 239
-0.022831906 0.76599997 0.0013430532 1.6131285e-38 303 239
-0.021432746 0.764 0.0013395466 1.5485864e-38 304 239
-0.0200406 0.76200002 0.00133604 1.539331e-38 305 239
-0.01870456 0.76200002 0.00133604 1.6037191e-38 306 239
-0.01736852 0.76200002 0.00133604 1.6037191e-38 307 239
-0.016011439 0.76099998 0.0013342865 1.5763482e-38 308 239
-0.014638579 0.759 0.00133078 1.5763482e-38 309 239
-0.0133078 0.759 0.00133078 1.58564e-38 310 239
-0.01194546 0.75700003 0.0013272733 1.6040791e-38 311 239
-0.010618187 0.75700003 0.0013272733 1.6131908e-38 312 239
-0.0092663663 0.755 0.0013237667 1.6224103e-38 313 239
-0.0079425992 0.755 0.0013237667 1.6224456e-38 314 239
-0.0066188332 0.755 0.0013237667 1.6316653e-38 315 239
-0.0052950666 0.755 0.0013237667 1.6042215e-38 316 239
-0.0039712996 0.755 0.0013237667 1.6042215e-38 317 239
-0.0026475333 0.755 0.0013237667 1.5767056e-38 318 239
-0.0013237667 0.755 0.0013237667 1.5306079e-38 319 239
0 0.755 0.0013237667 1.5672687e-38 320 239
0.0013220133 0.75400001 0.0013220133 1.5212069e-38 321 239
0.0026440267 0.75400001 0.0013220133 1.5578681e-38 322 239
0.0039712996 0.755 0.0013237667 1.5486125e-38 323 239
0.0052950666 0.755 0.0013237667 1.5669073e-38 324 239
0.0066188332 0.755 0.0013237667 1.5576879e-38 325 239
0.0079425992 0.755 0.0013237667 1.5576879e-38 326 239
0.0092663663 0.755 0.0013237667 1.5484684e-38 327 239
0.010590133 0.755 0.0013237667 1.539249e-38 328 239
0.011913899 0.755 0.0013237667 1.539249e-38 329 239
0.013237666 0.755 0.0013237667 1.5025507e-38 330 239
0.014561433 0.755 0.0013237667 1.4933313e-38 331 239
0.015885198 0.755 0.0013237667 1.4932602e-38 332 239
0.017208965 0.755 0.0013237667 1.474821e-38 333 239
0.018581826 0.75700003 0.0013272733 1.4655295e-38 334 239
0.0199617 0.759 0.00133078 1.4563101e-38 335 239
0.021348584 0.76099998 0.0013342865 1.4379078e-38 336 239
0.022682872 0.76099998 0.0013342865 1.4286882e-38 337 239
0.024017159 0.76099998 0.0013342865 1.4194334e-38 338 239
0.02538476 0.76200002 0.00133604 1.4102137e-38 339 239
0.0267208 0.76200002 0.00133604 1.3825913e-38 340 239
0.028130481 0.764 0.0013395466 1.3825913e-38 341 239
0.029547172 0.76599997 0.0013430532 1.3733374e-38 342 239
0.030890226 0.76599997 0.0013430532 1.3825928e-38 343 239
0.03227536 0.76700002 0.0013448066 1.3916718e-38 344 239
0.033620168 0.76700002 0.0013448066 1.4377336e-38 345 239
0.034964975 0.76700002 0.0013448066 1.4839456e-38 346 239
0.036309779 0.76700002 0.0013448066 1.5669219e-38 347 239
0.037654586 0.76700002 0.0013448066 1.6037689e-38 348 239
-0.028314579 0.76899999 -0 1.5117878e-38 299 240
-0.026966266 0.76899999 -0 1.5762178e-38 300 240
-0.025617953 0.76899999 -0 1.6222796e-38 301 240
-0.024206521 0.76700002 -0 1.5398453e-38 302 240
-0.022831906 0.76599997 -0 1.5398453e-38 303 240
-0.021488851 0.76599997 -0 1.4841969e-38 304 240
-0.020093199 0.764 -0 1.4473545e-38 305 240
-0.01870456 0.76200002 -0 1.5854243e-38 306 240
-0.01736852 0.76200002 -0 1.5762048e-38 307 240
-0.016011439 0.76099998 -0 1.5578731e-38 308 240
-0.014677152 0.76099998 -0 1.5671287e-38 309 240
-0.0133078 0.759 -0 1.5304319e-38 310 240
-0.01197702 0.759 -0 1.548835e-38 311 240
-0.01064624 0.759 -0 1.5580902e-38 312 240
-0.0092909131 0.75700003 -0 1.5580902e-38 313 240
-0.0079636406 0.75700003 -0 1.567345e-38 314 240
-0.0066363667 0.75700003 -0 1.5765647e-38 315 240
-0.0052950666 0.755 -0 1.6041864e-38 316 240
-0.0039712996 0.755 -0 1.5949309e-38 317 240
-0.0026475333 0.755 -0 1.5857098e-38 318 240
-0.0013237667 0.755 -0 1.5488675e-38 319 240
0 0.755 -0 1.5488295e-38 320 240
0.0013220133 0.75400001 -0 1.5212069e-38 321 240
0.0026440267 0.75400001 -0 1.5302815e-38 322 240
0.0039712996 0.755 -0 1.521062e-38 323 240
0.0052950666 0.755 -0 1.5301372e-38 324 240
0.0066188332 0.755 -0 1.5208819e-38 325 240
0.0079425992 0.755 -0 1.5301013e-38 326 240
0.0092663663 0.755 -0 1.5301013e-38 327 240
0.010590133 0.755 -0 1.520846e-38 328 240
0.011913899 0.755 -0 1.520846e-38 329 240
0.013237666 0.755 -0 1.4932602e-38 330 240
0.014561433 0.755 -0 1.4932602e-38 331 240
0.015927281 0.75700003 -0 1.45649e-38 332 240
0.017254554 0.75700003 -0 1.4472346e-38 333 240
0.01863092 0.759 -0 1.4379789e-38 334 240
0.0199617 0.759 -0 1.4379789e-38 335 240
0.021348584 0.76099998 -0 1.4287236e-38 336 240
0.022682872 0.76099998 -0 1.4195041e-38 337 240
0.024017159 0.76099998 -0 1.4194324e-38 338 240
0.02538476 0.76200002 -0 1.4009577e-38 339 240
0.0267208 0.76200002 -0 1.4192537e-38 340 240
0.028130481 0.764 -0 1.4192537e-38 341 240
0.029547172 0.76599997 -0 1.3824856e-38 342 240
0.030930554 0.76700002 -0 1.4101084e-38 343 240
0.032359518 0.76899999 -0 1.3916731e-38 344 240
0.033707831 0.76899999 -0 1.4285874e-38 345 240
0.035056144 0.76899999 -0 1.5024215e-38 346 240
0.036404461 0.76899999 -0 1.5669584e-38 347 240
-0.028314579 0.76899999 -0.0013483133 1.5210089e-38 299 241
-0.026966266 0.76899999 -0.0013483133 1.5577443e-38 300 241
-0.025617953 0.76899999 -0.0013483133 1.5393411e-38 301 241
-0.024206521 0.76700002 -0.0013448066 1.4293923e-38 302 241
-0.022831906 0.76599997 -0.0013430532 1.4662345e-38 303 241
-0.021488851 0.76599997 -0.0013430532 1.4199178e-38 304 241
-0.020093199 0.764 -0.0013395466 1.4383928e-38 305 241
-0.01870456 0.76200002 -0.00133604 1.5580243e-38 306 241
-0.01736852 0.76200002 -0.00133604 1.5303297e-38 307 241
-0.016011439 0.76099998 -0.0013342865 1.5762053e-38 308 241
-0.014677152 0.76099998 -0.0013342865 1.5577662e-38 309 241
-0.013342866 0.76099998 -0.0013342865 1.5487242e-38 310 241
-0.01197702 0.759 -0.00133078 1.5487242e-38 311 241
-0.01064624 0.759 -0.00133078 1.5488325e-38 312 241
-0.00931546 0.759 -0.00133078 1.5488325e-38 313 241
-0.0079636406 0.75700003 -0.0013272733 1.5580883e-38 314 241
-0.0066363667 0.75700003 -0.0013272733 1.5673438e-38 315 241
-0.0052950666 0.755 -0.0013237667 1.5948949e-38 316 241
-0.0039712996 0.755 -0.0013237667 1.5948949e-38 317 241
-0.0026475333 0.755 -0.0013237667 1.5857103e-38 318 241
-0.0013237667 0.755 -0.0013237667 1.5488322e-38 319 241
0 0.755 -0.0013237667 1.5395744e-38 320 241
0.0013237667 0.755 -0.0013237667 1.502732e-38 321 241
0.0026475333 0.755 -0.0013237667 1.5394284e-38 322 241
0.0039712996 0.755 -0.0013237667 1.511806e-38 323 241
0.0052950666 0.755 -0.0013237667 1.5301013e-38 324 241
0.0066188332 0.755 -0.0013237667 1.5208819e-38 325 241
0.0079425992 0.755 -0.0013237667 1.5116984e-38 326 241
0.0092663663 0.755 -0.0013237667 1.5116984e-38 327 241
0.010590133 0.755 -0.0013237667 1.5116625e-38 328 241
0.011913899 0.755 -0.0013237667 1.4932595e-38 329 241
0.013272733 0.75700003 -0.0013272733 1.4657449e-38 330 241
0.014600007 0.75700003 -0.0013272733 1.4564894e-38 331 241
0.015927281 0.75700003 -0.0013272733 1.45649e-38 332 241
0.017300138 0.759 -0.00133078 1.438015e-38 333 241
0.01863092 0.759 -0.00133078 1.4379789e-38 334 241
0.020014299 0.76099998 -0.0013342865 1.4287594e-38 335 241
0.021348584 0.76099998 -0.0013342865 1.4287236e-38 336 241
0.02271268 0.76200002 -0.00133604 1.4195041e-38 337 241
0.02404872 0.76200002 -0.00133604 1.4102493e-38 338 241
0.02538476 0.76200002 -0.00133604 1.4102493e-38 339 241
0.026790932 0.764 -0.0013395466 1.4009591e-38 340 241
0.028130481 0.764 -0.0013395466 1.4009591e-38 341 241
0.029547172 0.76599997 -0.0013430532 1.4008537e-38 342 241
0.030930554 0.76700002 -0.0013448066 1.419293e-38 343 241
0.032359518 0.76899999 -0.0013483133 1.3916381e-38 344 241
0.033707831 0.76899999 -0.0013483133 1.4469554e-38 345 241
0.035056144 0.76899999 -0.0013483133 1.5393723e-38 346 241
0.036404461 0.76899999 -0.0013483133 1.58547e-38 347 241
-0.026966266 0.76899999 -0.0026966266 1.5393781e-38 300 242
-0.025617953 0.76899999 -0.0026966266 1.5116834e-38 301 242
-0.024206521 0.76700002 -0.0026896133 1.3096467e-38 302 242
-0.022831906 0.76599997 -0.0026861064 1.3280859e-38 303 242
-0.021488851 0.76599997 -0.0026861064 1.4109171e-38 304 242
-0.020172099 0.76700002 -0.0026896133 1.4662345e-38 305 242
-0.018753653 0.764 -0.0026790933 1.5580285e-38 306 242
-0.01736852 0.76200002 -0.00267208 1.5303338e-38 307 242
-0.01603248 0.76200002 -0.00267208 1.5576608e-38 308 242
-0.014677152 0.76099998 -0.0026685731 1.5576608e-38 309 242
-0.013342866 0.76099998 -0.0026685731 1.5486891e-38 310 242
-0.012008579 0.76099998 -0.0026685731 1.5486891e-38 311 242
-0.010674292 0.76099998 -0.0026685731 1.5395775e-38 312 242
-0.00931546 0.759 -0.00266156 1.5395775e-38 313 242
-0.0079846792 0.759 -0.00266156 1.5488691e-38 314 242
-0.0066363667 0.75700003 -0.0026545466 1.5580886e-38 315 242
-0.0053090933 0.75700003 -0.0026545466 1.5856397e-38 316 242
-0.0039818203 0.75700003 -0.0026545466 1.5764201e-38 317 242
-0.0026475333 0.755 -0.0026475333 1.5763833e-38 318 242
-0.0013237667 0.755 -0.0026475333 1.5486886e-38 319 242
0 0.755 -0.0026475333 1.5394309e-38 320 242
0.0013237667 0.755 -0.0026475333 1.5302113e-38 321 242
0.0026475333 0.755 -0.0026475333 1.530209e-38 322 242
0.0039712996 0.755 -0.0026475333 1.5117701e-38 323 242
0.0052950666 0.755 -0.0026475333 1.5116625e-38 324 242
0.0066188332 0.755 -0.0026475333 1.4932595e-38 325 242
0.0079425992 0.755 -0.0026475333 1.4657447e-38 326 242
0.0092909131 0.75700003 -0.0026545466 1.4657447e-38 327 242
0.010618187 0.75700003 -0.0026545466 1.4840405e-38 328 242
0.01194546 0.75700003 -0.0026545466 1.4840405e-38 329 242
0.013272733 0.75700003 -0.0026545466 1.4472717e-38 330 242
0.014600007 0.75700003 -0.0026545466 1.4472717e-38 331 242
0.015969358 0.759 -0.00266156 1.4471998e-38 332 242
0.017300138 0.759 -0.00266156 1.4379803e-38 333 242
0.018680012 0.76099998 -0.0026685731 1.4379434e-38 334 242
0.020014299 0.76099998 -0.0026685731 1.4379434e-38 335 242
0.02137664 0.76200002 -0.00267208 1.410357e-38 336 242
0.02271268 0.76200002 -0.00267208 1.4011375e-38 337 242
0.02404872 0.76200002 -0.00267208 1.4102139e-38 338 242
0.025451386 0.764 -0.0026790933 1.4102139e-38 339 242
0.026790932 0.764 -0.0026790933 1.4100714e-38 340 242
0.028204117 0.76599997 -0.0026861064 1.419291e-38 341 242
0.029585747 0.76700002 -0.0026896133 1.3917069e-38 342 242
0.031011207 0.76899999 -0.0026966266 1.410146e-38 343 242
0.032443684 0.77100003 -0.0027036399 1.3917831e-38 344 242
0.033795502 0.77100003 -0.0027036399 1.4470646e-38 345 242
0.035238493 0.773 -0.0027106532 1.5393736e-38 346 242
0.036593821 0.773 -0.0027106532 1.5670681e-38 347 242
-0.02568458 0.77100003 -0.0040554604 1.5116836e-38 301 243
-0.024269639 0.76899999 -0.0040449398 1.327906e-38 302 243
-0.022861714 0.76700002 -0.00403442 1.2357464e-38 303 243
-0.021516906 0.76700002 -0.00403442 1.3188664e-38 304 243
-0.020172099 0.76700002 -0.00403442 1.4479403e-38 305 243
-0.018802745 0.76599997 -0.0040291594 1.5581748e-38 306 243
-0.017459691 0.76599997 -0.0040291594 1.5028576e-38 307 243
-0.01603248 0.76200002 -0.0040081199 1.5393678e-38 308 243
-0.01469644 0.76200002 -0.0040081199 1.5301483e-38 309 243
-0.013342866 0.76099998 -0.0040028598 1.5486535e-38 310 243
-0.012008579 0.76099998 -0.0040028598 1.539434e-38 311 243
-0.010674292 0.76099998 -0.0040028598 1.5486886e-38 312 243
-0.0093400059 0.76099998 -0.0040028598 1.5486886e-38 313 243
-0.0080057196 0.76099998 -0.0040028598 1.5487972e-38 314 243
-0.0066538998 0.759 -0.0039923396 1.5487972e-38 315 243
-0.0053090933 0.75700003 -0.0039818203 1.5672006e-38 316 243
-0.0039818203 0.75700003 -0.0039818203 1.5487616e-38 317 243
-0.0026545466 0.75700003 -0.0039818203 1.5762752e-38 318 243
-0.0013237667 0.755 -0.0039712996 1.5486526e-38 319 243
0 0.755 -0.0039712996 1.5394309e-38 320 243
0.0013237667 0.755 -0.0039712996 1.5209916e-38 321 243
0.0026475333 0.755 -0.0039712996 1.5117702e-38 322 243
0.0039712996 0.755 -0.0039712996 1.5025507e-38 323 243
0.0053090933 0.75700003 -0.0039818203 1.4932958e-38 324 243
0.0066363667 0.75700003 -0.0039818203 1.4748565e-38 325 243
0.0079636406 0.75700003 -0.0039818203 1.4564544e-38 326 243
0.0092909131 0.75700003 -0.0039818203 1.4656741e-38 327 243
0.010618187 0.75700003 -0.0039818203 1.4564191e-38 328 243
0.01194546 0.75700003 -0.0039818203 1.4471995e-38 329 243
0.0133078 0.759 -0.0039923396 1.4287977e-38 330 243
0.014638579 0.759 -0.0039923396 1.4287977e-38 331 243
0.016011439 0.76099998 -0.0040028598 1.4471648e-38 332 243
0.017345725 0.76099998 -0.0040028598 1.4471648e-38 333 243
0.018680012 0.76099998 -0.0040028598 1.4470923e-38 334 243
0.0200406 0.76200002 -0.0040081199 1.4470923e-38 335 243
0.02137664 0.76200002 -0.0040081199 1.4103942e-38 336 243
0.02271268 0.76200002 -0.0040081199 1.4011387e-38 337 243
0.02404872 0.76200002 -0.0040081199 1.4010674e-38 338 243
0.025451386 0.764 -0.0040186401 1.3918118e-38 339 243
0.026861066 0.76599997 -0.0040291594 1.3917772e-38 340 243
0.02824094 0.76700002 -0.00403442 1.3917772e-38 341 243
0.02966289 0.76899999 -0.0040449398 1.3917081e-38 342 243
0.031091858 0.77100003 -0.0040554604 1.4101831e-38 343 243
0.032569919 0.77399999 -0.0040712398 1.4194435e-38 344 243
0.033927001 0.77399999 -0.0040712398 1.4932e-38 345 243
0.03528408 0.77399999 -0.0040712398 1.5485584e-38 346 243
-0.02568458 0.77100003 -0.0054072798 1.4933521e-38 301 244
-0.024269639 0.76899999 -0.0053932532 1.4106654e-38 302 244
-0.022861714 0.76700002 -0.0053792265 1.3461285e-38 303 244
-0.021516906 0.76700002 -0.0053792265 1.2358546e-38 304 244
-0.0202247 0.76899999 -0.0053932532 1.3003915e-38 305 244
-0.018827293 0.76700002 -0.0053792265 1.4110598e-38 306 244
-0.017459691 0.76599997 -0.0053722127 1.4110598e-38 307 244
-0.016074561 0.764 -0.0053581866 1.4751571e-38 308 244
-0.01469644 0.76200002 -0.0053441599 1.4474984e-38 309 244
-0.0133604 0.76200002 -0.0053441599 1.5209605e-38 310 244
-0.01202436 0.76200002 -0.0053441599 1.5393636e-38 311 244
-0.01068832 0.76200002 -0.0053441599 1.5394696e-38 312 244
-0.0093400059 0.76099998 -0.0053371461 1.5394696e-38 313 244
-0.0080057196 0.76099998 -0.0053371461 1.5303574e-38 314 244
-0.0066714329 0.76099998 -0.0053371461 1.5303574e-38 315 244
-0.0053231199 0.759 -0.0053231199 1.5486889e-38 316 244
-0.0039818203 0.75700003 -0.0053090933 1.5394693e-38 317 244
-0.0026545466 0.75700003 -0.0053090933 1.548652e-38 318 244
-0.0013272733 0.75700003 -0.0053090933 1.5302129e-38 319 244
0 0.75700003 -0.0053090933 1.5302832e-38 320 244
0.0013237667 0.755 -0.0052950666 1.511844e-38 321 244
0.0026475333 0.755 -0.0052950666 1.5117715e-38 322 244
0.0039818203 0.75700003 -0.0053090933 1.5025519e-38 323 244
0.0053090933 0.75700003 -0.0053090933 1.4840059e-38 324 244
0.0066363667 0.75700003 -0.0053090933 1.4655308e-38 325 244
0.0079846792 0.759 -0.0053231199 1.4196137e-38 326 244
0.00931546 0.759 -0.0053231199 1.4288333e-38 327 244
0.01064624 0.759 -0.0053231199 1.4195781e-38 328 244
0.01197702 0.759 -0.0053231199 1.4195781e-38 329 244
0.013342866 0.76099998 -0.0053371461 1.410466e-38 330 244
0.014677152 0.76099998 -0.0053371461 1.4196856e-38 331 244
0.016011439 0.76099998 -0.0053371461 1.4379447e-38 332 244
0.017345725 0.76099998 -0.0053371461 1.4379447e-38 333 244
0.01870456 0.76200002 -0.0053441599 1.4379447e-38 334 244
0.0200406 0.76200002 -0.0053441599 1.4379447e-38 335 244
0.02137664 0.76200002 -0.0053441599 1.401139e-38 336 244
0.022772292 0.764 -0.0053581866 1.401139e-38 337 244
0.024111839 0.764 -0.0053581866 1.3918844e-38 338 244
0.025518013 0.76599997 -0.0053722127 1.3826648e-38 339 244
0.026896132 0.76700002 -0.0053792265 1.3917422e-38 340 244
0.028314579 0.76899999 -0.0053932532 1.3917422e-38 341 244
0.029740039 0.77100003 -0.0054072798 1.3733419e-38 342 244
0.03117251 0.773 -0.0054213065 1.3825614e-38 343 244
0.032569919 0.77399999 -0.0054283198 1.4195886e-38 344 244
0.033927001 0.77399999 -0.0054283198 1.5117482e-38 345 244
-0.024269639 0.76899999 -0.0067415666 1.4566184e-38 302 245
-0.022861714 0.76700002 -0.006724033 1.4197401e-38 303 245
-0.021516906 0.76700002 -0.006724033 1.3000675e-38 304 245
-0.0202247 0.76899999 -0.0067415666 1.2447862e-38 305 245
-0.018827293 0.76700002 -0.006724033 1.2821672e-38 306 245
-0.017459691 0.76599997 -0.0067152665 1.3467042e-38 307 245
-0.016074561 0.764 -0.006697733 1.4384979e-38 308 245
-0.01469644 0.76200002 -0.0066801999 1.3831805e-38 309 245
-0.0133604 0.76200002 -0.0066801999 1.4934113e-38 310 245
-0.01202436 0.76200002 -0.0066801999 1.5026308e-38 311 245
-0.01068832 0.76200002 -0.0066801999 1.5210662e-38 312 245
-0.0093522798 0.76200002 -0.0066801999 1.5210662e-38 313 245
-0.0080162399 0.76200002 -0.0066801999 1.5211378e-38 314 245
-0.0066714329 0.76099998 -0.0066714329 1.5211378e-38 315 245
-0.0053371461 0.76099998 -0.0066714329 1.5119182e-38 316 245
-0.0040028598 0.76099998 -0.0066714329 1.5119182e-38 317 245
-0.0026685731 0.76099998 -0.0066714329 1.502734e-38 318 245
-0.00133078 0.759 -0.0066538998 1.502734e-38 319 245
0 0.759 -0.0066538998 1.5026968e-38 320 245
0.0013272733 0.75700003 -0.0066363667 1.4934771e-38 321 245
0.0026545466 0.75700003 -0.0066363667 1.5117715e-38 322 245
0.0039923396 0.759 -0.0066538998 1.4933324e-38 323 245
0.0053231199 0.759 -0.0066538998 1.4840059e-38 324 245
0.0066538998 0.759 -0.0066538998 1.4471277e-38 325 245
0.0079846792 0.759 -0.0066538998 1.4103588e-38 326 245
0.0093400059 0.76099998 -0.0066714329 1.4103588e-38 327 245
0.010674292 0.76099998 -0.0066714329 1.3920276e-38 328 245
0.012008579 0.76099998 -0.0066714329 1.4104307e-38 329 245
0.013342866 0.76099998 -0.0066714329 1.4104658e-38 330 245
0.014677152 0.76099998 -0.0066714329 1.4104658e-38 331 245
0.016011439 0.76099998 -0.0066714329 1.419685e-38 332 245
0.01736852 0.76200002 -0.0066801999 1.4104655e-38 333 245
0.01870456 0.76200002 -0.0066801999 1.3920271e-38 334 245
0.0200406 0.76200002 -0.0066801999 1.3920271e-38 335 245
0.02137664 0.76200002 -0.0066801999 1.4102867e-38 336 245
0.022772292 0.764 -0.006697733 1.4010671e-38 337 245
0.024174958 0.76599997 -0.0067152665 1.4009965e-38 338 245
0.025551327 0.76700002 -0.006724033 1.3917769e-38 339 245
0.026966266 0.76899999 -0.0067415666 1.3641924e-38 340 245
0.028388219 0.77100003 -0.0067590997 1.3734119e-38 341 245
0.029817186 0.773 -0.0067766332 1.3641236e-38 342 245
0.031212838 0.77399999 -0.0067853997 1.3825986e-38 343 245
0.032569919 0.77399999 -0.0067853997 1.4563958e-38 344 245
-0.022921326 0.76899999 -0.0080898795 1.4015165e-38 303 246
-0.021573013 0.76899999 -0.0080898795 1.3369089e-38 304 246
-0.0202247 0.76899999 -0.0080898795 1.2631524e-38 305 246
-0.018827293 0.76700002 -0.00806884 1.0334195e-38 306 246
-0.017482487 0.76700002 -0.00806884 1.1717129e-38 307 246
-0.016116638 0.76599997 -0.0080583189 1.3372663e-38 308 246
-0.014735013 0.764 -0.0080372803 1.3925836e-38 309 246
-0.0133604 0.76200002 -0.0080162399 1.4936673e-38 310 246
-0.01202436 0.76200002 -0.0080162399 1.456753e-38 311 246
-0.01068832 0.76200002 -0.0080162399 1.5209958e-38 312 246
-0.0093522798 0.76200002 -0.0080162399 1.5209958e-38 313 246
-0.0080162399 0.76200002 -0.0080162399 1.5118466e-38 314 246
-0.0066801999 0.76200002 -0.0080162399 1.5118466e-38 315 246
-0.0053371461 0.76099998 -0.0080057196 1.5209933e-38 316 246
-0.0040028598 0.76099998 -0.0080057196 1.5209933e-38 317 246
-0.0026685731 0.76099998 -0.0080057196 1.5118086e-38 318 246
-0.0013342865 0.76099998 -0.0080057196 1.5118086e-38 319 246
0 0.759 -0.0079846792 1.5118437e-38 320 246
0.00133078 0.759 -0.0079846792 1.4934406e-38 321 246
0.00266156 0.759 -0.0079846792 1.493405e-38 322 246
0.0039923396 0.759 -0.0079846792 1.4841854e-38 323 246
0.0053231199 0.759 -0.0079846792 1.4564564e-38 324 246
0.0066538998 0.759 -0.0079846792 1.4195781e-38 325 246
0.0080057196 0.76099998 -0.0080057196 1.4010318e-38 326 246
0.0093400059 0.76099998 -0.0080057196 1.4102514e-38 327 246
0.010674292 0.76099998 -0.0080057196 1.3920271e-38 328 246
0.012008579 0.76099998 -0.0080057196 1.3920271e-38 329 246
0.0133604 0.76200002 -0.0080162399 1.4105011e-38 330 246
0.01469644 0.76200002 -0.0080162399 1.4105011e-38 331 246
0.01603248 0.76200002 -0.0080162399 1.4196487e-38 332 246
0.01736852 0.76200002 -0.0080162399 1.4104292e-38 333 246
0.01870456 0.76200002 -0.0080162399 1.3920271e-38 334 246
0.020093199 0.764 -0.0080372803 1.3828075e-38 335 246
0.021432746 0.764 -0.0080372803 1.4102514e-38 336 246
0.022861714 0.76700002 -0.00806884 1.4010318e-38 337 246
0.024206521 0.76700002 -0.00806884 1.3918491e-38 338 246
0.025617953 0.76899999 -0.0080898795 1.3826295e-38 339 246
0.027036399 0.77100003 -0.0081109209 1.3641924e-38 340 246
0.028461859 0.773 -0.0081319595 1.3641924e-38 341 246
0.029817186 0.773 -0.0081319595 1.3551571e-38 342 246
0.031212838 0.77399999 -0.0081424797 1.4012189e-38 343 246
-0.021516906 0.76700002 -0.0094136465 1.3735347e-38 304 247
-0.018827293 0.76700002 -0.0094136465 1.152771e-38 306 247
-0.017482487 0.76700002 -0.0094136465 1.1804656e-38 307 247
-0.016116638 0.76599997 -0.0094013726 1.1900442e-38 308 247
-0.014735013 0.764 -0.0093768267 1.3375573e-38 309 247
-0.013395466 0.764 -0.0093768267 1.5030701e-38 310 247
-0.01205592 0.764 -0.0093768267 1.3924354e-38 311 247
-0.010716373 0.764 -0.0093768267 1.5117422e-38 312 247
-0.0093768267 0.764 -0.0093768267 1.5025227e-38 313 247
-0.0080372803 0.764 -0.0093768267 1.5301425e-38 314 247
-0.0066801999 0.76200002 -0.0093522798 1.520923e-38 315 247
-0.0053441599 0.76200002 -0.0093522798 1.5209583e-38 316 247
-0.0040028598 0.76099998 -0.0093400059 1.5117027e-38 317 247
-0.0026685731 0.76099998 -0.0093400059 1.4934068e-38 318 247
-0.0013342865 0.76099998 -0.0093400059 1.4841872e-38 319 247
0 0.76099998 -0.0093400059 1.4933699e-38 320 247
0.0013342865 0.76099998 -0.0093400059 1.4933699e-38 321 247
0.0026685731 0.76099998 -0.0093400059 1.4934055e-38 322 247
0.0040028598 0.76099998 -0.0093400059 1.4749305e-38 323 247
0.0053371461 0.76099998 -0.0093400059 1.4747153e-38 324 247
0.0066714329 0.76099998 -0.0093400059 1.4470926e-38 325 247
0.0080057196 0.76099998 -0.0093400059 1.4378731e-38 326 247
0.0093400059 0.76099998 -0.0093400059 1.4378731e-38 327 247
0.01068832 0.76200002 -0.0093522798 1.4103939e-38 328 247
0.01202436 0.76200002 -0.0093522798 1.4103939e-38 329 247
0.0133604 0.76200002 -0.0093522798 1.4104658e-38 330 247
0.01469644 0.76200002 -0.0093522798 1.3920626e-38 331 247
0.01603248 0.76200002 -0.0093522798 1.3920271e-38 332 247
0.017414106 0.764 -0.0093768267 1.3920271e-38 333 247
0.018753653 0.764 -0.0093768267 1.4103586e-38 334 247
0.020093199 0.764 -0.0093768267 1.401139e-38 335 247
0.021432746 0.764 -0.0093768267 1.4102516e-38 336 247
0.022861714 0.76700002 -0.0094136465 1.4010321e-38 337 247
0.024269639 0.76899999 -0.0094381925 1.3917419e-38 338 247
0.02568458 0.77100003 -0.0094627403 1.4009615e-38 339 247
0.027106533 0.773 -0.0094872871 1.3916012e-38 340 247
0.028498679 0.77399999 -0.0094995592 1.4100762e-38 341 247
-0.0202247 0.76899999 -0.010786506 1.2814101e-38 305 248
-0.018876385 0.76899999 -0.010786506 1.2447856e-38 306 248
-0.017528072 0.76899999 -0.010786506 1.2171268e-38 307 248
-0.01613768 0.76700002 -0.010758453 1.0978843e-38 308 248
-0.014773586 0.76599997 -0.010744425 1.2914951e-38 309 248
-0.013430533 0.76599997 -0.010744425 1.4755203e-38 310 248
-0.012087479 0.76599997 -0.010744425 1.355666e-38 311 248
-0.010716373 0.764 -0.010716373 1.4841211e-38 312 248
-0.0093768267 0.764 -0.010716373 1.4933407e-38 313 248
-0.0080372803 0.764 -0.010716373 1.5301072e-38 314 248
-0.006697733 0.764 -0.010716373 1.5208877e-38 315 248
-0.0053441599 0.76200002 -0.01068832 1.5117383e-38 316 248
-0.0040081199 0.76200002 -0.01068832 1.5117383e-38 317 248
-0.00267208 0.76200002 -0.01068832 1.5117736e-38 318 248
-0.00133604 0.76200002 -0.01068832 1.5117736e-38 319 248
0 0.76099998 -0.010674292 1.484222e-38 320 248
0.0013342865 0.76099998 -0.010674292 1.484222e-38 321 248
0.0026685731 0.76099998 -0.010674292 1.4842225e-38 322 248
0.0040028598 0.76099998 -0.010674292 1.475003e-38 323 248
0.0053371461 0.76099998 -0.010674292 1.4564211e-38 324 248
0.0066714329 0.76099998 -0.010674292 1.4287982e-38 325 248
0.0080162399 0.76200002 -0.01068832 1.4379096e-38 326 248
0.0093522798 0.76200002 -0.01068832 1.4379096e-38 327 248
0.01068832 0.76200002 -0.01068832 1.4196856e-38 328 248
0.01202436 0.76200002 -0.01068832 1.410466e-38 329 248
0.013395466 0.764 -0.010716373 1.4013188e-38 330 248
0.014735013 0.764 -0.010716373 1.3920992e-38 331 248
0.016074561 0.764 -0.010716373 1.4104304e-38 332 248
0.017414106 0.764 -0.010716373 1.4104304e-38 333 248
0.018753653 0.764 -0.010716373 1.3920276e-38 334 248
0.020145798 0.76599997 -0.010744425 1.3827722e-38 335 248
0.021488851 0.76599997 -0.010744425 1.4010687e-38 336 248
0.022921326 0.76899999 -0.010786506 1.3918491e-38 337 248
0.02433276 0.77100003 -0.01081456 1.3917785e-38 338 248
0.025751207 0.773 -0.010842613 1.3917785e-38 339 248
0.027141599 0.77399999 -0.01085664 1.3825261e-38 340 248
-0.018876385 0.76899999 -0.012134819 1.2997413e-38 306 249
-0.017528072 0.76899999 -0.012134819 1.2905218e-38 307 249
-0.01613768 0.76700002 -0.01210326 1.2081223e-38 308 249
-0.014792874 0.76700002 -0.01210326 1.364855e-38 309 249
-0.013430533 0.76599997 -0.012087479 1.5214392e-38 310 249
-0.012087479 0.76599997 -0.012087479 1.4015849e-38 311 249
-0.010744425 0.76599997 -0.012087479 1.5116371e-38 312 249
-0.0094013726 0.76599997 -0.012087479 1.5024176e-38 313 249
-0.0080583189 0.76599997 -0.012087479 1.5300356e-38 314 249
-0.0067152665 0.76599997 -0.012087479 1.5208161e-38 315 249
-0.0053581866 0.764 -0.01205592 1.5208863e-38 316 249
-0.0040186401 0.764 -0.01205592 1.5116308e-38 317 249
-0.0026790933 0.764 -0.01205592 1.511738e-38 318 249
-0.0013395466 0.764 -0.01205592 1.4933349e-38 319 249
0 0.76200002 -0.01202436 1.4842225e-38 320 249
0.00133604 0.76200002 -0.01202436 1.4842225e-38 321 249
0.00267208 0.76200002 -0.01202436 1.4749677e-38 322 249
0.0040081199 0.76200002 -0.01202436 1.4565646e-38 323 249
