# .PCD v.7 - Point Cloud Data file format
FIELDS x y z rgb imX imY
SIZE 4 4 4 4 4 4
TYPE F F F F F F
COUNT 1 1 1 1 1 1
WIDTH 855
HEIGHT 1
VIEWPOINT 0 0 0 1 0 0 0
POINTS 855
DATA ascii
0.02298094 0.77100003 0.045961879 1.5575532e-38 337 206
0.02433276 0.77100003 0.045961879 1.5209315e-38 338 206
0.025751207 0.773 0.046081103 1.5669935e-38 339 206
0.027141599 0.77399999 0.046140719 1.6315347e-38 340 206
0.028572321 0.77600002 0.046259947 1.6960717e-38 341 206
-0.02307036 0.77399999 0.044783637 1.677597e-38 303 207
-0.021713279 0.77399999 0.044783637 1.5672088e-38 304 207
-0.0204088 0.77600002 0.044899363 1.5672088e-38 305 207
-0.019048214 0.77600002 0.044899363 1.6041905e-38 306 207
-0.01764204 0.77399999 0.044783637 1.5949709e-38 307 207
-0.016284959 0.77399999 0.044783637 1.6316666e-38 308 207
-0.014927879 0.77399999 0.044783637 1.6040439e-38 309 207
-0.013553266 0.773 0.044725779 1.6315558e-38 310 207
-0.01216638 0.77100003 0.044610061 1.5946777e-38 311 207
-0.01081456 0.77100003 0.044610061 1.6130778e-38 312 207
-0.0094627403 0.77100003 0.044610061 1.5946387e-38 313 207
-0.0081109209 0.77100003 0.044610061 1.5946016e-38 314 207
-0.0067415666 0.76899999 0.044494338 1.6130405e-38 315 207
-0.0053932532 0.76899999 0.044494338 1.6221882e-38 316 207
-0.0040449398 0.76899999 0.044494338 1.6314078e-38 317 207
-0.0026966266 0.76899999 0.044494338 1.6499541e-38 318 207
-0.0013483133 0.76899999 0.044494338 1.6499541e-38 319 207
0 0.76899999 0.044494338 1.6500615e-38 320 207
0.0013483133 0.76899999 0.044494338 1.6500615e-38 321 207
0.0026966266 0.76899999 0.044494338 1.6685362e-38 322 207
0.0040449398 0.76899999 0.044494338 1.6685362e-38 323 207
0.0053932532 0.76899999 0.044494338 1.659245e-38 324 207
0.0067415666 0.76899999 0.044494338 1.659245e-38 325 207
0.0080898795 0.76899999 0.044494338 1.6775045e-38 326 207
0.0094381925 0.76899999 0.044494338 1.6590656e-38 327 207
0.010786506 0.76899999 0.044494338 1.6773969e-38 328 207
0.012134819 0.76899999 0.044494338 1.6773969e-38 329 207
0.013483133 0.76899999 0.044494338 1.6772892e-38 330 207
0.014792874 0.76700002 0.04437862 1.6680698e-38 331 207
0.01613768 0.76700002 0.04437862 1.6496684e-38 332 207
0.017482487 0.76700002 0.04437862 1.6496684e-38 333 207
0.018876385 0.76899999 0.044494338 1.6127939e-38 334 207
0.0202247 0.76899999 0.044494338 1.6220135e-38 335 207
0.021629119 0.77100003 0.044610061 1.5759555e-38 336 207
0.02298094 0.77100003 0.044610061 1.5759555e-38 337 207
0.02433276 0.77100003 0.044610061 1.5116371e-38 338 207
0.025751207 0.773 0.044725779 1.5208567e-38 339 207
0.027141599 0.77399999 0.044783637 1.5485919e-38 340 207
0.028498679 0.77399999 0.044783637 1.6407515e-38 341 207
0.029855758 0.77399999 0.044783637 1.6960013e-38 342 207
-0.024395877 0.773 0.043370452 1.6869572e-38 302 208
-0.023040552 0.773 0.043370452 1.4933464e-38 303 208
-0.021713279 0.77399999 0.043426558 1.5026322e-38 304 208
-0.020356199 0.77399999 0.043426558 1.5579495e-38 305 208
-0.018999118 0.77399999 0.043426558 1.6040811e-38 306 208
-0.01764204 0.77399999 0.043426558 1.6040811e-38 307 208
-0.016263919 0.773 0.043370452 1.6224456e-38 308 208
-0.014908593 0.773 0.043370452 1.6132261e-38 309 208
-0.013553266 0.773 0.043370452 1.6315542e-38 310 208
-0.01216638 0.77100003 0.043258239 1.613115e-38 311 208
-0.01081456 0.77100003 0.043258239 1.6130775e-38 312 208
-0.0094381925 0.76899999 0.043146025 1.6130775e-38 313 208
-0.0080898795 0.76899999 0.043146025 1.6131129e-38 314 208
-0.0067415666 0.76899999 0.043146025 1.6131129e-38 315 208
-0.0053932532 0.76899999 0.043146025 1.6222245e-38 316 208
-0.0040449398 0.76899999 0.043146025 1.6406995e-38 317 208
-0.0026966266 0.76899999 0.043146025 1.6498486e-38 318 208
-0.0013483133 0.76899999 0.043146025 1.6867267e-38 319 208
0 0.76899999 0.043146025 1.6316261e-38 320 208
0.0013483133 0.76899999 0.043146025 1.6500652e-38 321 208
0.0026966266 0.76899999 0.043146025 1.6684318e-38 322 208
0.0040449398 0.76899999 0.043146025 1.6776513e-38 323 208
0.0053932532 0.76899999 0.043146025 1.6685021e-38 324 208
0.0067415666 0.76899999 0.043146025 1.6685021e-38 325 208
0.00806884 0.76700002 0.043033812 1.6775772e-38 326 208
0.0094136465 0.76700002 0.043033812 1.6775772e-38 327 208
0.010758453 0.76700002 0.043033812 1.6682492e-38 328 208
0.01210326 0.76700002 0.043033812 1.6682492e-38 329 208
0.013448066 0.76700002 0.043033812 1.6773251e-38 330 208
0.014792874 0.76700002 0.043033812 1.6681057e-38 331 208
0.01613768 0.76700002 0.043033812 1.6313372e-38 332 208
0.017482487 0.76700002 0.043033812 1.6221176e-38 333 208
0.018876385 0.76899999 0.043146025 1.6128277e-38 334 208
0.0202247 0.76899999 0.043146025 1.6036081e-38 335 208
0.021573013 0.76899999 0.043146025 1.5760236e-38 336 208
0.022921326 0.76899999 0.043146025 1.5576205e-38 337 208
0.024269639 0.76899999 0.043146025 1.5116328e-38 338 208
0.02568458 0.77100003 0.043258239 1.5116328e-38 339 208
0.027141599 0.77399999 0.043426558 1.484051e-38 340 208
0.028498679 0.77399999 0.043426558 1.530113e-38 341 208
0.029855758 0.77399999 0.043426558 1.5946559e-38 342 208
-0.024395877 0.773 0.042015124 1.6040865e-38 302 209
-0.023040552 0.773 0.042015124 1.4750126e-38 303 209
-0.021713279 0.77399999 0.042069476 1.5302887e-38 304 209
-0.020356199 0.77399999 0.042069476 1.5672028e-38 305 209
-0.018999118 0.77399999 0.042069476 1.5856412e-38 306 209
-0.01764204 0.77399999 0.042069476 1.5948609e-38 307 209
-0.016263919 0.773 0.042015124 1.6224088e-38 308 209
-0.014908593 0.773 0.042015124 1.6131892e-38 309 209
-0.013518199 0.77100003 0.04190642 1.6407006e-38 310 209
-0.01216638 0.77100003 0.04190642 1.6499561e-38 311 209
-0.01081456 0.77100003 0.04190642 1.6591738e-38 312 209
-0.0094381925 0.76899999 0.041797712 1.6499541e-38 313 209
-0.0080898795 0.76899999 0.041797712 1.6590661e-38 314 209
-0.0067415666 0.76899999 0.041797712 1.6406271e-38 315 209
-0.0053932532 0.76899999 0.041797712 1.6314444e-38 316 209
-0.0040449398 0.76899999 0.041797712 1.6314444e-38 317 209
-0.0026966266 0.76899999 0.041797712 1.6407012e-38 318 209
-0.0013483133 0.76899999 0.041797712 1.6591403e-38 319 209
0 0.76899999 0.041797712 1.6315911e-38 320 209
0.0013483133 0.76899999 0.041797712 1.6408106e-38 321 209
0.0026896133 0.76700002 0.041689005 1.6501374e-38 322 209
0.00403442 0.76700002 0.041689005 1.6593571e-38 323 209
0.0053932532 0.76899999 0.041797712 1.6593554e-38 324 209
0.006724033 0.76700002 0.041689005 1.6593554e-38 325 209
0.00806884 0.76700002 0.041689005 1.6867615e-38 326 209
0.0094136465 0.76700002 0.041689005 1.6775419e-38 327 209
0.010744425 0.76599997 0.041634649 1.677505e-38 328 209
0.012087479 0.76599997 0.041634649 1.6682853e-38 329 209
0.013430533 0.76599997 0.041634649 1.6406627e-38 330 209
0.014773586 0.76599997 0.041634649 1.6314432e-38 331 209
0.016116638 0.76599997 0.041634649 1.6221526e-38 332 209
0.017482487 0.76700002 0.041689005 1.6129331e-38 333 209
0.018827293 0.76700002 0.041689005 1.5853119e-38 334 209
0.020172099 0.76700002 0.041689005 1.5760922e-38 335 209
0.021516906 0.76700002 0.041689005 1.5484355e-38 336 209
0.022921326 0.76899999 0.041797712 1.5484355e-38 337 209
0.024269639 0.76899999 0.041797712 1.5116661e-38 338 209
0.02568458 0.77100003 0.04190642 1.493227e-38 339 209
0.027036399 0.77100003 0.04190642 1.4839744e-38 340 209
0.028388219 0.77100003 0.04190642 1.4839744e-38 341 209
0.029740039 0.77100003 0.04190642 1.493237e-38 342 209
0.031091858 0.77100003 0.04190642 1.594688e-38 343 209
-0.024395877 0.773 0.0406598 1.5486593e-38 302 210
-0.023040552 0.773 0.0406598 1.5210366e-38 303 210
-0.021685226 0.773 0.0406598 1.5763845e-38 304 210
-0.020356199 0.77399999 0.040712398 1.58564e-38 305 210
-0.018999118 0.77399999 0.040712398 1.6132258e-38 306 210
-0.01764204 0.77399999 0.040712398 1.6224454e-38 307 210
-0.016263919 0.773 0.0406598 1.6132593e-38 308 210
-0.01487002 0.77100003 0.040554602 1.6132593e-38 309 210
-0.013518199 0.77100003 0.040554602 1.6408794e-38 310 210
-0.01216638 0.77100003 0.040554602 1.6408794e-38 311 210
-0.01081456 0.77100003 0.040554602 1.6776498e-38 312 210
-0.0094381925 0.76899999 0.0404494 1.6499911e-38 313 210
-0.0080898795 0.76899999 0.0404494 1.6407362e-38 314 210
-0.0067415666 0.76899999 0.0404494 1.622333e-38 315 210
-0.0053932532 0.76899999 0.0404494 1.6130781e-38 316 210
-0.0040449398 0.76899999 0.0404494 1.6222977e-38 317 210
-0.0026966266 0.76899999 0.0404494 1.5947479e-38 318 210
-0.0013483133 0.76899999 0.0404494 1.6039676e-38 319 210
0 0.76899999 0.0404494 1.5856382e-38 320 210
0.0013483133 0.76899999 0.0404494 1.6132608e-38 321 210
0.0026896133 0.76700002 0.040344197 1.6135132e-38 322 210
0.00403442 0.76700002 0.040344197 1.6319523e-38 323 210
0.0053932532 0.76899999 0.0404494 1.6685414e-38 324 210
0.006724033 0.76700002 0.040344197 1.6593218e-38 325 210
0.00806884 0.76700002 0.040344197 1.6684674e-38 326 210
0.0094136465 0.76700002 0.040344197 1.6684674e-38 327 210
0.010744425 0.76599997 0.040291596 1.659246e-38 328 210
0.01205592 0.764 0.040186398 1.6500264e-38 329 210
0.013395466 0.764 0.040186398 1.6590656e-38 330 210
0.014735013 0.764 0.040186398 1.6590656e-38 331 210
0.016074561 0.764 0.040186398 1.6314432e-38 332 210
0.017414106 0.764 0.040186398 1.6130044e-38 333 210
0.018802745 0.76599997 0.040291596 1.5944938e-38 334 210
0.020145798 0.76599997 0.040291596 1.5944938e-38 335 210
0.021488851 0.76599997 0.040291596 1.5576172e-38 336 210
0.022861714 0.76700002 0.040344197 1.5483977e-38 337 210
0.024206521 0.76700002 0.040344197 1.5299958e-38 338 210
0.025617953 0.76899999 0.0404494 1.5207763e-38 339 210
0.026966266 0.76899999 0.0404494 1.5298907e-38 340 210
0.028314579 0.76899999 0.0404494 1.4930126e-38 341 210
0.02966289 0.76899999 0.0404494 1.428517e-38 342 210
0.031091858 0.77100003 0.040554602 1.4930539e-38 343 210
-0.025751207 0.773 0.039304473 1.4935635e-38 301 211
-0.024395877 0.773 0.039304473 1.521142e-38 302 211
-0.023040552 0.773 0.039304473 1.5303616e-38 303 211
-0.021685226 0.773 0.039304473 1.5673435e-38 304 211
-0.0203299 0.773 0.039304473 1.5857466e-38 305 211
-0.018974574 0.773 0.039304473 1.5949649e-38 306 211
-0.017619247 0.773 0.039304473 1.5857454e-38 307 211
-0.016221842 0.77100003 0.03920278 1.6132943e-38 308 211
-0.01487002 0.77100003 0.03920278 1.6040748e-38 309 211
-0.013483133 0.76899999 0.039101087 1.6592826e-38 310 211
-0.012134819 0.76899999 0.039101087 1.6592826e-38 311 211
-0.010786506 0.76899999 0.039101087 1.6867264e-38 312 211
-0.0094381925 0.76899999 0.039101087 1.6498842e-38 313 211
-0.0080898795 0.76899999 0.039101087 1.6222624e-38 314 211
-0.0067415666 0.76899999 0.039101087 1.6130428e-38 315 211
-0.0053932532 0.76899999 0.039101087 1.6038232e-38 316 211
-0.0040449398 0.76899999 0.039101087 1.5946037e-38 317 211
-0.0026966266 0.76899999 0.039101087 1.548687e-38 318 211
-0.0013483133 0.76899999 0.039101087 1.5579425e-38 319 211
0 0.76899999 0.039101087 1.5212827e-38 320 211
0.0013483133 0.76899999 0.039101087 1.5673804e-38 321 211
0.0026896133 0.76700002 0.038999394 1.586001e-38 322 211
0.00403442 0.76700002 0.038999394 1.6044761e-38 323 211
0.0053792265 0.76700002 0.038999394 1.6593962e-38 324 211
0.006724033 0.76700002 0.038999394 1.6501766e-38 325 211
0.0080583189 0.76599997 0.038948543 1.6501022e-38 326 211
0.0094013726 0.76599997 0.038948543 1.6501022e-38 327 211
0.010716373 0.764 0.038846854 1.6592828e-38 328 211
0.01205592 0.764 0.038846854 1.6408439e-38 329 211
0.013395466 0.764 0.038846854 1.6592454e-38 330 211
0.014735013 0.764 0.038846854 1.6500259e-38 331 211
0.016074561 0.764 0.038846854 1.6590298e-38 332 211
0.017414106 0.764 0.038846854 1.6313715e-38 333 211
0.018753653 0.764 0.038846854 1.5945297e-38 334 211
0.020093199 0.764 0.038846854 1.5669073e-38 335 211
0.021488851 0.76599997 0.038948543 1.5576525e-38 336 211
0.022831906 0.76599997 0.038948543 1.548433e-38 337 211
0.024206521 0.76700002 0.038999394 1.5299595e-38 338 211
0.025551327 0.76700002 0.038999394 1.52074e-38 339 211
0.026896132 0.76700002 0.038999394 1.5114147e-38 340 211
0.028314579 0.76899999 0.039101087 1.502195e-38 341 211
0.02966289 0.76899999 0.039101087 1.4836149e-38 342 211
0.031091858 0.77100003 0.03920278 1.4928345e-38 343 211
0.032443684 0.77100003 0.03920278 1.4749057e-38 344 211
-0.027106533 0.773 0.037949149 1.6595131e-38 300 212
-0.025751207 0.773 0.037949149 1.42906e-38 301 212
-0.024395877 0.773 0.037949149 1.5395792e-38 302 212
-0.023040552 0.773 0.037949149 1.5672378e-38 303 212
-0.021685226 0.773 0.037949149 1.5949299e-38 304 212
-0.0203299 0.773 0.037949149 1.5857103e-38 305 212
-0.018974574 0.773 0.037949149 1.6041116e-38 306 212
-0.017619247 0.773 0.037949149 1.6041116e-38 307 212
-0.016221842 0.77100003 0.037850961 1.6041104e-38 308 212
-0.014831445 0.76899999 0.03775277 1.6133299e-38 309 212
-0.013483133 0.76899999 0.03775277 1.631769e-38 310 212
-0.012134819 0.76899999 0.03775277 1.6225495e-38 311 212
-0.010786506 0.76899999 0.03775277 1.6407738e-38 312 212
-0.0094381925 0.76899999 0.03775277 1.613115e-38 313 212
-0.0080898795 0.76899999 0.03775277 1.6038248e-38 314 212
-0.0067415666 0.76899999 0.03775277 1.5761662e-38 315 212
-0.0053792265 0.76700002 0.037654586 1.557799e-38 316 212
-0.00403442 0.76700002 0.037654586 1.5301763e-38 317 212
-0.0026966266 0.76899999 0.03775277 1.484295e-38 318 212
-0.0013483133 0.76899999 0.03775277 1.502734e-38 319 212
0 0.76899999 0.03775277 1.4569627e-38 320 212
0.0013448066 0.76700002 0.037654586 1.493805e-38 321 212
0.0026896133 0.76700002 0.037654586 1.5676714e-38 322 212
0.00403442 0.76700002 0.037654586 1.5861105e-38 323 212
0.0053792265 0.76700002 0.037654586 1.6227352e-38 324 212
0.006724033 0.76700002 0.037654586 1.6042959e-38 325 212
0.0080583189 0.76599997 0.037605491 1.6134761e-38 326 212
0.0094013726 0.76599997 0.037605491 1.6042565e-38 327 212
0.010716373 0.764 0.037507307 1.6318046e-38 328 212
0.01205592 0.764 0.037507307 1.6225492e-38 329 212
0.013395466 0.764 0.037507307 1.6592457e-38 330 212
0.014735013 0.764 0.037507307 1.6592457e-38 331 212
0.016074561 0.764 0.037507307 1.6866163e-38 332 212
0.017414106 0.764 0.037507307 1.6681774e-38 333 212
0.018753653 0.764 0.037507307 1.6037132e-38 334 212
0.020093199 0.764 0.037507307 1.5944938e-38 335 212
0.021432746 0.764 0.037507307 1.5852026e-38 336 212
0.022772292 0.764 0.037507307 1.5667638e-38 337 212
0.024174958 0.76599997 0.037605491 1.5483611e-38 338 212
0.025518013 0.76599997 0.037605491 1.5391415e-38 339 212
0.026896132 0.76700002 0.037654586 1.5573305e-38 340 212
0.02824094 0.76700002 0.037654586 1.5481108e-38 341 212
0.02966289 0.76899999 0.03775277 1.5113794e-38 342 212
0.031011207 0.76899999 0.03775277 1.4929402e-38 343 212
0.032359518 0.76899999 0.03775277 1.4285889e-38 344 212
-0.028498679 0.77399999 0.036641158 1.668487e-38 299 213
-0.027106533 0.773 0.036593821 1.5765353e-38 300 213
-0.025751207 0.773 0.036593821 1.4382419e-38 301 213
-0.024395877 0.773 0.036593821 1.5855325e-38 302 213
-0.023040552 0.773 0.036593821 1.6039356e-38 303 213
-0.021685226 0.773 0.036593821 1.6040766e-38 304 213
-0.0203299 0.773 0.036593821 1.5856735e-38 305 213
-0.018974574 0.773 0.036593821 1.622406e-38 306 213
-0.017619247 0.773 0.036593821 1.6040029e-38 307 213
-0.016221842 0.77100003 0.036499143 1.622406e-38 308 213
-0.014831445 0.76899999 0.036404461 1.6316614e-38 309 213
-0.013483133 0.76899999 0.036404461 1.6408444e-38 310 213
-0.012134819 0.76899999 0.036404461 1.6223694e-38 311 213
-0.010786506 0.76899999 0.036404461 1.6407012e-38 312 213
-0.0094381925 0.76899999 0.036404461 1.6222621e-38 313 213
-0.0080898795 0.76899999 0.036404461 1.5669822e-38 314 213
-0.0067415666 0.76899999 0.036404461 1.5577627e-38 315 213
-0.0053792265 0.76700002 0.036309779 1.4932976e-38 316 213
-0.00403442 0.76700002 0.036309779 1.4656391e-38 317 213
-0.0026966266 0.76899999 0.036404461 1.4289416e-38 318 213
-0.0013483133 0.76899999 0.036404461 1.4566362e-38 319 213
0 0.76899999 0.036404461 1.4564602e-38 320 213
0.0013448066 0.76700002 0.036309779 1.5302167e-38 321 213
0.0026896133 0.76700002 0.036309779 1.5492345e-38 322 213
0.00403442 0.76700002 0.036309779 1.5953322e-38 323 213
0.0053792265 0.76700002 0.036309779 1.549377e-38 324 213
0.006724033 0.76700002 0.036309779 1.5216823e-38 325 213
0.0080583189 0.76599997 0.036262438 1.5950395e-38 326 213
0.0094013726 0.76599997 0.036262438 1.5950395e-38 327 213
0.010716373 0.764 0.036167759 1.6316987e-38 328 213
0.01205592 0.764 0.036167759 1.6224791e-38 329 213
0.013395466 0.764 0.036167759 1.6776145e-38 330 213
0.014735013 0.764 0.036167759 1.6776145e-38 331 213
0.016074561 0.764 0.036167759 1.6592454e-38 332 213
0.017414106 0.764 0.036167759 1.5947449e-38 333 213
0.01870456 0.76200002 0.036073081 1.6222597e-38 334 213
0.0200406 0.76200002 0.036073081 1.5853461e-38 335 213
0.02137664 0.76200002 0.036073081 1.566979e-38 336 213
0.022772292 0.764 0.036167759 1.5577237e-38 337 213
0.024111839 0.764 0.036167759 1.5483977e-38 338 213
0.025451386 0.764 0.036167759 1.5483977e-38 339 213
0.026861066 0.76599997 0.036262438 1.5298163e-38 340 213
0.028204117 0.76599997 0.036262438 1.5298163e-38 341 213
0.02966289 0.76899999 0.036404461 1.4838279e-38 342 213
0.031011207 0.76899999 0.036404461 1.4838279e-38 343 213
0.032359518 0.76899999 0.036404461 1.4652131e-38 344 213
0.033707831 0.76899999 0.036404461 1.5113109e-38 345 213
-0.029855758 0.77399999 0.03528408 1.8161059e-38 298 214
-0.028498679 0.77399999 0.03528408 1.60402e-38 299 214
-0.027106533 0.773 0.035238493 1.521324e-38 300 214
-0.025751207 0.773 0.035238493 1.4475315e-38 301 214
-0.024395877 0.773 0.035238493 1.5580886e-38 302 214
-0.023040552 0.773 0.035238493 1.5673082e-38 303 214
-0.021685226 0.773 0.035238493 1.5857454e-38 304 214
-0.0203299 0.773 0.035238493 1.5765258e-38 305 214
-0.018974574 0.773 0.035238493 1.5948202e-38 306 214
-0.01757366 0.77100003 0.03514732 1.5948202e-38 307 214
-0.016221842 0.77100003 0.03514732 1.5948202e-38 308 214
-0.014831445 0.76899999 0.035056144 1.6040397e-38 309 214
-0.013483133 0.76899999 0.035056144 1.6315542e-38 310 214
-0.012134819 0.76899999 0.035056144 1.6223347e-38 311 214
-0.010786506 0.76899999 0.035056144 1.6130078e-38 312 214
-0.0094381925 0.76899999 0.035056144 1.5945328e-38 313 214
-0.0080898795 0.76899999 0.035056144 1.5209566e-38 314 214
-0.0067415666 0.76899999 0.035056144 1.4748589e-38 315 214
-0.0053792265 0.76700002 0.034964975 1.4472361e-38 316 214
-0.00403442 0.76700002 0.034964975 1.4196134e-38 317 214
-0.0026966266 0.76899999 0.035056144 1.373768e-38 318 214
-0.0013483133 0.76899999 0.035056144 1.373768e-38 319 214
0 0.76899999 0.035056144 1.3553324e-38 320 214
0.0013483133 0.76899999 0.035056144 1.4198693e-38 321 214
0.0026966266 0.76899999 0.035056144 1.4569313e-38 322 214
0.00403442 0.76700002 0.034964975 1.5214682e-38 323 214
0.0053792265 0.76700002 0.034964975 1.5123556e-38 324 214
0.006724033 0.76700002 0.034964975 1.503136e-38 325 214
0.00806884 0.76700002 0.034964975 1.5766366e-38 326 214
0.0094013726 0.76599997 0.034919381 1.5582335e-38 327 214
0.010744425 0.76599997 0.034919381 1.5858172e-38 328 214
0.01205592 0.764 0.034828212 1.5858172e-38 329 214
0.013395466 0.764 0.034828212 1.6132943e-38 330 214
0.01469644 0.76200002 0.034737039 1.6132943e-38 331 214
0.01603248 0.76200002 0.034737039 1.6499541e-38 332 214
0.01736852 0.76200002 0.034737039 1.6222597e-38 333 214
0.01870456 0.76200002 0.034737039 1.6313715e-38 334 214
0.0200406 0.76200002 0.034737039 1.6129685e-38 335 214
0.02137664 0.76200002 0.034737039 1.612825e-38 336 214
0.02271268 0.76200002 0.034737039 1.6035697e-38 337 214
0.02404872 0.76200002 0.034737039 1.5759119e-38 338 214
0.025451386 0.764 0.034828212 1.5666923e-38 339 214
0.026790932 0.764 0.034828212 1.5389993e-38 340 214
0.028130481 0.764 0.034828212 1.5482189e-38 341 214
0.029547172 0.76599997 0.034919381 1.5297093e-38 342 214
0.031011207 0.76899999 0.035056144 1.538929e-38 343 214
0.032359518 0.76899999 0.035056144 1.4652834e-38 344 214
0.033795502 0.77100003 0.03514732 1.474503e-38 345 214
-0.029855758 0.77399999 0.033927001 1.7424196e-38 298 215
-0.028461859 0.773 0.033883166 1.5211142e-38 299 215
-0.027106533 0.773 0.033883166 1.4751163e-38 300 215
-0.025751207 0.773 0.033883166 1.4751163e-38 301 215
-0.024395877 0.773 0.033883166 1.5581239e-38 302 215
-0.02298094 0.77100003 0.033795502 1.5581239e-38 303 215
-0.021629119 0.77100003 0.033795502 1.5856729e-38 304 215
-0.020277301 0.77100003 0.033795502 1.5672338e-38 305 215
-0.018925481 0.77100003 0.033795502 1.6038951e-38 306 215
-0.01757366 0.77100003 0.033795502 1.6038951e-38 307 215
-0.016179759 0.76899999 0.033707831 1.613115e-38 308 215
-0.014831445 0.76899999 0.033707831 1.6223347e-38 309 215
-0.013483133 0.76899999 0.033707831 1.6222621e-38 310 215
-0.012134819 0.76899999 0.033707831 1.6130425e-38 311 215
-0.010786506 0.76899999 0.033707831 1.5670173e-38 312 215
-0.0094381925 0.76899999 0.033707831 1.5393226e-38 313 215
-0.00806884 0.76700002 0.033620168 1.4565267e-38 314 215
-0.006724033 0.76700002 0.033620168 1.4012093e-38 315 215
-0.0053932532 0.76899999 0.033707831 1.3918824e-38 316 215
-0.0040449398 0.76899999 0.033707831 1.3642238e-38 317 215
-0.0026966266 0.76899999 0.033707831 1.2815371e-38 318 215
-0.0013483133 0.76899999 0.033707831 1.2815371e-38 319 215
0 0.76899999 0.033707831 1.2540248e-38 320 215
0.0013483133 0.76899999 0.033707831 1.3001226e-38 321 215
0.0026966266 0.76899999 0.033707831 1.3094883e-38 322 215
0.00403442 0.76700002 0.033620168 1.3648057e-38 323 215
0.0053792265 0.76700002 0.033620168 1.3925003e-38 324 215
0.006724033 0.76700002 0.033620168 1.4385622e-38 325 215
0.00806884 0.76700002 0.033620168 1.5030252e-38 326 215
0.0094013726 0.76599997 0.033576332 1.5214643e-38 327 215
0.010744425 0.76599997 0.033576332 1.5948946e-38 328 215
0.01205592 0.764 0.033488665 1.5948946e-38 329 215
0.013395466 0.764 0.033488665 1.6132593e-38 330 215
0.01469644 0.76200002 0.033401001 1.6040397e-38 331 215
0.01603248 0.76200002 0.033401001 1.6407715e-38 332 215
0.01736852 0.76200002 0.033401001 1.6131129e-38 333 215
0.01870456 0.76200002 0.033401001 1.6314432e-38 334 215
0.0200406 0.76200002 0.033401001 1.6130044e-38 335 215
0.02137664 0.76200002 0.033401001 1.6037132e-38 336 215
0.02271268 0.76200002 0.033401001 1.5852385e-38 337 215
0.02404872 0.76200002 0.033401001 1.5759119e-38 338 215
0.02538476 0.76200002 0.033401001 1.5759119e-38 339 215
0.026790932 0.764 0.033488665 1.566622e-38 340 215
0.028130481 0.764 0.033488665 1.566622e-38 341 215
0.029547172 0.76599997 0.033576332 1.529781e-38 342 215
0.031011207 0.76899999 0.033707831 1.5205613e-38 343 215
0.032359518 0.76899999 0.033707831 1.4928698e-38 344 215
0.033795502 0.77100003 0.033795502 1.5020895e-38 345 215
0.03514732 0.77100003 0.033795502 1.437883e-38 346 215
-0.029817186 0.773 0.032527838 1.6688045e-38 298 216
-0.028461859 0.773 0.032527838 1.4383515e-38 299 216
-0.027106533 0.773 0.032527838 1.5117775e-38 300 216
-0.025751207 0.773 0.032527838 1.5670949e-38 301 216
-0.02433276 0.77100003 0.032443684 1.5581605e-38 302 216
-0.02298094 0.77100003 0.032443684 1.5581605e-38 303 216
-0.021629119 0.77100003 0.032443684 1.5764889e-38 304 216
-0.020277301 0.77100003 0.032443684 1.5580138e-38 305 216
-0.018876385 0.76899999 0.032359518 1.576344e-38 306 216
-0.017528072 0.76899999 0.032359518 1.5855636e-38 307 216
-0.016179759 0.76899999 0.032359518 1.6038951e-38 308 216
-0.014792874 0.76700002 0.03227536 1.6038951e-38 309 216
-0.013448066 0.76700002 0.03227536 1.6038229e-38 310 216
-0.012134819 0.76899999 0.032359518 1.5761643e-38 311 216
-0.010786506 0.76899999 0.032359518 1.5210267e-38 312 216
-0.0094381925 0.76899999 0.032359518 1.4472702e-38 313 216
-0.00806884 0.76700002 0.03227536 1.4287954e-38 314 216
-0.006724033 0.76700002 0.03227536 1.3458564e-38 315 216
-0.0053932532 0.76899999 0.032359518 1.3180905e-38 316 216
-0.0040449398 0.76899999 0.032359518 1.2720292e-38 317 216
-0.0026966266 0.76899999 0.032359518 1.1800865e-38 318 216
-0.0013483133 0.76899999 0.032359518 1.1984897e-38 319 216
0 0.76899999 0.032359518 1.1710134e-38 320 216
0.0013483133 0.76899999 0.032359518 1.1894525e-38 321 216
0.0026966266 0.76899999 0.032359518 1.217257e-38 322 216
0.00403442 0.76700002 0.03227536 1.2817939e-38 323 216
0.0053792265 0.76700002 0.03227536 1.3095608e-38 324 216
0.006724033 0.76700002 0.03227536 1.3833173e-38 325 216
0.00806884 0.76700002 0.03227536 1.4661486e-38 326 216
0.0094013726 0.76599997 0.032233275 1.4938432e-38 327 216
0.010744425 0.76599997 0.032233275 1.567345e-38 328 216
0.01205592 0.764 0.032149121 1.5581255e-38 329 216
0.0133604 0.76200002 0.032064959 1.613224e-38 330 216
0.01469644 0.76200002 0.032064959 1.6040044e-38 331 216
0.01603248 0.76200002 0.032064959 1.6407715e-38 332 216
0.01736852 0.76200002 0.032064959 1.6223324e-38 333 216
0.01870456 0.76200002 0.032064959 1.6406985e-38 334 216
0.0200406 0.76200002 0.032064959 1.6222238e-38 335 216
0.02137664 0.76200002 0.032064959 1.6312639e-38 336 216
0.02271268 0.76200002 0.032064959 1.6127892e-38 337 216
0.02404872 0.76200002 0.032064959 1.6034983e-38 338 216
0.02538476 0.76200002 0.032064959 1.5850952e-38 339 216
0.026790932 0.764 0.032149121 1.5850245e-38 340 216
0.028130481 0.764 0.032149121 1.575805e-38 341 216
0.029547172 0.76599997 0.032233275 1.5389287e-38 342 216
0.030930554 0.76700002 0.03227536 1.529709e-38 343 216
0.032359518 0.76899999 0.032359518 1.4928698e-38 344 216
0.033795502 0.77100003 0.032443684 1.4928698e-38 345 216
0.03514732 0.77100003 0.032443684 1.3824207e-38 346 216
-0.029817186 0.773 0.03117251 1.6135212e-38 298 217
-0.028461859 0.773 0.03117251 1.4106908e-38 299 217
-0.027106533 0.773 0.03117251 1.5578015e-38 300 217
-0.02568458 0.77100003 0.031091858 1.6223384e-38 301 217
-0.024269639 0.76899999 0.031011207 1.5950015e-38 302 217
-0.022921326 0.76899999 0.031011207 1.5673788e-38 303 217
-0.021573013 0.76899999 0.031011207 1.5765237e-38 304 217
-0.0202247 0.76899999 0.031011207 1.5488649e-38 305 217
-0.018876385 0.76899999 0.031011207 1.5671595e-38 306 217
-0.017482487 0.76700002 0.030930554 1.5671595e-38 307 217
-0.01613768 0.76700002 0.030930554 1.5762719e-38 308 217
-0.014792874 0.76700002 0.030930554 1.5762719e-38 309 217
-0.013448066 0.76700002 0.030930554 1.576164e-38 310 217
-0.01210326 0.76700002 0.030930554 1.5300662e-38 311 217
-0.010758453 0.76700002 0.030930554 1.4657813e-38 312 217
-0.0094136465 0.76700002 0.030930554 1.3920252e-38 313 217
-0.00806884 0.76700002 0.030930554 1.3642961e-38 314 217
-0.006724033 0.76700002 0.030930554 1.2813204e-38 315 217
-0.0053792265 0.76700002 0.030930554 1.2258604e-38 316 217
-0.0040449398 0.76899999 0.031011207 1.1613244e-38 317 217
-0.0026966266 0.76899999 0.031011207 1.0876767e-38 318 217
-0.0013483133 0.76899999 0.031011207 1.0968961e-38 319 217
0 0.76899999 0.031011207 1.0509809e-38 320 217
0.0013483133 0.76899999 0.031011207 1.087895e-38 321 217
0.0026966266 0.76899999 0.031011207 1.0605975e-38 322 217
0.0040449398 0.76899999 0.031011207 1.134354e-38 323 217
0.0053792265 0.76700002 0.030930554 1.2173653e-38 324 217
0.006724033 0.76700002 0.030930554 1.3095608e-38 325 217
0.00806884 0.76700002 0.030930554 1.4200511e-38 326 217
0.0094013726 0.76599997 0.030890226 1.4753684e-38 327 217
0.010744425 0.76599997 0.030890226 1.5305041e-38 328 217
0.01205592 0.764 0.030809574 1.5305041e-38 329 217
0.0133604 0.76200002 0.030728921 1.5764905e-38 330 217
0.01469644 0.76200002 0.030728921 1.5764905e-38 331 217
0.01603248 0.76200002 0.030728921 1.6315893e-38 332 217
0.01736852 0.76200002 0.030728921 1.6223697e-38 333 217
0.01870456 0.76200002 0.030728921 1.6406271e-38 334 217
0.0200406 0.76200002 0.030728921 1.6221879e-38 335 217
0.02137664 0.76200002 0.030728921 1.649631e-38 336 217
0.02271268 0.76200002 0.030728921 1.6127533e-38 337 217
0.02404872 0.76200002 0.030728921 1.6034621e-38 338 217
0.02538476 0.76200002 0.030728921 1.5942427e-38 339 217
0.0267208 0.76200002 0.030728921 1.5850954e-38 340 217
0.028056841 0.76200002 0.030728921 1.5666204e-38 341 217
0.029547172 0.76599997 0.030890226 1.5389996e-38 342 217
0.030930554 0.76700002 0.030930554 1.529744e-38 343 217
0.03227536 0.76700002 0.030930554 1.4928332e-38 344 217
0.033707831 0.76899999 0.031011207 1.5020528e-38 345 217
0.03514732 0.77100003 0.031091858 1.3822393e-38 346 217
0.036499143 0.77100003 0.031091858 1.5020936e-38 347 217
-0.029855758 0.77399999 0.029855758 1.594865e-38 298 218
-0.028461859 0.773 0.029817186 1.447352e-38 299 218
-0.027036399 0.77100003 0.029740039 1.5671284e-38 300 218
-0.025617953 0.76899999 0.02966289 1.6685435e-38 301 218
-0.024269639 0.76899999 0.02966289 1.6135129e-38 302 218
-0.022861714 0.76700002 0.029585747 1.5766347e-38 303 218
-0.021516906 0.76700002 0.029585747 1.5765959e-38 304 218
-0.0202247 0.76899999 0.02966289 1.530498e-38 305 218
-0.018827293 0.76700002 0.029585747 1.5487927e-38 306 218
-0.017482487 0.76700002 0.029585747 1.5487927e-38 307 218
-0.01613768 0.76700002 0.029585747 1.5670526e-38 308 218
-0.014792874 0.76700002 0.029585747 1.5670526e-38 309 218
-0.013448066 0.76700002 0.029585747 1.5485409e-38 310 218
-0.01210326 0.76700002 0.029585747 1.4840042e-38 311 218
-0.010758453 0.76700002 0.029585747 1.4472346e-38 312 218
-0.0094136465 0.76700002 0.029585747 1.3642593e-38 313 218
-0.00806884 0.76700002 0.029585747 1.2905764e-38 314 218
-0.006724033 0.76700002 0.029585747 1.1799426e-38 315 218
-0.0053792265 0.76700002 0.029585747 1.0968243e-38 316 218
-0.00403442 0.76700002 0.029585747 9.6775241e-39 317 218
-0.0026966266 0.76899999 0.02966289 8.6641051e-39 318 218
-0.0013483133 0.76899999 0.02966289 8.6641051e-39 319 218
0 0.76899999 0.02966289 8.8477761e-39 320 218
0.0013483133 0.76899999 0.02966289 8.8477761e-39 321 218
0.0026966266 0.76899999 0.02966289 8.3000057e-39 322 218
0.0040449398 0.76899999 0.02966289 9.9598872e-39 323 218
0.0053792265 0.76700002 0.029585747 1.1527203e-38 324 218
0.006724033 0.76700002 0.029585747 1.244952e-38 325 218
0.0080583189 0.76599997 0.029547172 1.3463662e-38 326 218
0.0094013726 0.76599997 0.029547172 1.4109031e-38 327 218
0.010716373 0.764 0.029470026 1.5119928e-38 328 218
0.01205592 0.764 0.029470026 1.5212123e-38 329 218
0.0133604 0.76200002 0.029392879 1.5764186e-38 330 218
0.01469644 0.76200002 0.029392879 1.5764186e-38 331 218
0.01603248 0.76200002 0.029392879 1.6406656e-38 332 218
0.01736852 0.76200002 0.029392879 1.6406656e-38 333 218
0.01870456 0.76200002 0.029392879 1.6682504e-38 334 218
0.0200406 0.76200002 0.029392879 1.6221526e-38 335 218
0.02137664 0.76200002 0.029392879 1.6404833e-38 336 218
0.02271268 0.76200002 0.029392879 1.612825e-38 337 218
0.02404872 0.76200002 0.029392879 1.6035697e-38 338 218
0.02538476 0.76200002 0.029392879 1.6035697e-38 339 218
0.0267208 0.76200002 0.029392879 1.5942068e-38 340 218
0.028056841 0.76200002 0.029392879 1.5942068e-38 341 218
0.029547172 0.76599997 0.029547172 1.538964e-38 342 218
0.030890226 0.76599997 0.029547172 1.5297443e-38 343 218
0.03227536 0.76700002 0.029585747 1.4929402e-38 344 218
0.033707831 0.76899999 0.02966289 1.4837206e-38 345 218
0.03514732 0.77100003 0.029740039 1.4190804e-38 346 218
0.036499143 0.77100003 0.029740039 1.4928369e-38 347 218
-0.029740039 0.77100003 0.028388219 1.5488026e-38 298 219
-0.028388219 0.77100003 0.028388219 1.475046e-38 299 219
-0.027036399 0.77100003 0.028388219 1.5671637e-38 300 219
-0.025617953 0.76899999 0.028314579 1.6409202e-38 301 219
-0.024206521 0.76700002 0.02824094 1.5951448e-38 302 219
-0.022861714 0.76700002 0.02824094 1.5767056e-38 303 219
-0.021516906 0.76700002 0.02824094 1.6040379e-38 304 219
-0.020172099 0.76700002 0.02824094 1.5763791e-38 305 219
-0.018827293 0.76700002 0.02824094 1.5763069e-38 306 219
-0.017482487 0.76700002 0.02824094 1.5763069e-38 307 219
-0.01613768 0.76700002 0.02824094 1.557869e-38 308 219
-0.014773586 0.76599997 0.028204117 1.5302462e-38 309 219
-0.013430533 0.76599997 0.028204117 1.5300664e-38 310 219
-0.01210326 0.76700002 0.02824094 1.4747491e-38 311 219
-0.010758453 0.76700002 0.02824094 1.4652791e-38 312 219
-0.0094136465 0.76700002 0.02824094 1.391523e-38 313 219
-0.00806884 0.76700002 0.02824094 1.2352241e-38 314 219
-0.006724033 0.76700002 0.02824094 1.096932e-38 315 219
-0.0053792265 0.76700002 0.02824094 1.0230331e-38 316 219
-0.00403442 0.76700002 0.02824094 9.1243588e-39 317 219
-0.0026896133 0.76700002 0.02824094 8.7545239e-39 318 219
-0.0013448066 0.76700002 0.02824094 8.8467195e-39 319 219
0 0.76899999 0.028314579 8.3825128e-39 320 219
0.0013483133 0.76899999 0.028314579 7.8293404e-39 321 219
0.0026966266 0.76899999 0.028314579 7.2829895e-39 322 219
0.0040449398 0.76899999 0.028314579 9.4031289e-39 323 219
0.0053792265 0.76700002 0.02824094 1.106408e-38 324 219
0.0067152665 0.76599997 0.028204117 1.2262623e-38 325 219
0.0080583189 0.76599997 0.028204117 1.318528e-38 326 219
0.0093768267 0.764 0.028130481 1.3923205e-38 327 219
0.010716373 0.764 0.028130481 1.4842618e-38 328 219
0.01202436 0.76200002 0.028056841 1.5027009e-38 329 219
0.0133604 0.76200002 0.028056841 1.5304298e-38 330 219
0.014677152 0.76099998 0.028020019 1.5396495e-38 331 219
0.016011439 0.76099998 0.028020019 1.6223006e-38 332 219
0.017345725 0.76099998 0.028020019 1.6038975e-38 333 219
0.018680012 0.76099998 0.028020019 1.6222974e-38 334 219
0.020014299 0.76099998 0.028020019 1.5946387e-38 335 219
0.021348584 0.76099998 0.028020019 1.6404833e-38 336 219
0.022682872 0.76099998 0.028020019 1.6220086e-38 337 219
0.024017159 0.76099998 0.028020019 1.6310486e-38 338 219
0.025351444 0.76099998 0.028020019 1.6218292e-38 339 219
0.0267208 0.76200002 0.028056841 1.6033195e-38 340 219
0.028056841 0.76200002 0.028056841 1.5940999e-38 341 219
0.029392879 0.76200002 0.028056841 1.5572955e-38 342 219
0.030890226 0.76599997 0.028204117 1.5480758e-38 343 219
0.03227536 0.76700002 0.02824094 1.5020876e-38 344 219
0.033707831 0.76899999 0.028314579 1.492868e-38 345 219
0.03514732 0.77100003 0.028388219 1.4467384e-38 346 219
0.036593821 0.773 0.028461859 1.4744331e-38 347 219
-0.029817186 0.773 0.027106533 1.521107e-38 298 220
-0.028388219 0.77100003 0.027036399 1.4934481e-38 299 220
-0.027036399 0.77100003 0.027036399 1.5764549e-38 300 220
-0.025617953 0.76899999 0.026966266 1.6041494e-38 301 220
-0.024206521 0.76700002 0.026896132 1.6226959e-38 302 220
-0.022861714 0.76700002 0.026896132 1.5950012e-38 303 220
-0.021516906 0.76700002 0.026896132 1.5857085e-38 304 220
-0.020172099 0.76700002 0.026896132 1.5580138e-38 305 220
-0.018802745 0.76599997 0.026861066 1.5671242e-38 306 220
-0.017459691 0.76599997 0.026861066 1.5579046e-38 307 220
-0.016116638 0.76599997 0.026861066 1.5577604e-38 308 220
-0.014773586 0.76599997 0.026861066 1.5393213e-38 309 220
-0.013430533 0.76599997 0.026861066 1.529922e-38 310 220
-0.01205592 0.764 0.026790932 1.4930443e-38 311 220
-0.010716373 0.764 0.026790932 1.4286882e-38 312 220
-0.0093768267 0.764 0.026790932 1.3088711e-38 313 220
-0.0080583189 0.76599997 0.026861066 1.2167846e-38 314 220
-0.0067152665 0.76599997 0.026861066 1.0416154e-38 315 220
-0.0053722127 0.76599997 0.026861066 9.5853299e-39 316 220
-0.0040291594 0.76599997 0.026861066 9.1243588e-39 317 220
-0.0026861064 0.76599997 0.026861066 9.1229308e-39 318 220
-0.0013430532 0.76599997 0.026861066 8.4775642e-39 319 220
0 0.76700002 0.026896132 8.4718259e-39 320 220
0.0013448066 0.76700002 0.026896132 7.7342707e-39 321 220
0.0026896133 0.76700002 0.026896132 6.6315273e-39 322 220
0.00403442 0.76700002 0.026896132 8.5676117e-39 323 220
0.0053792265 0.76700002 0.026896132 1.069419e-38 324 220
0.0067152665 0.76599997 0.026861066 1.216896e-38 325 220
0.0080583189 0.76599997 0.026861066 1.3276368e-38 326 220
0.0093768267 0.764 0.026790932 1.3921738e-38 327 220
0.01068832 0.76200002 0.0267208 1.456638e-38 328 220
0.01202436 0.76200002 0.0267208 1.4658577e-38 329 220
0.0133604 0.76200002 0.0267208 1.4842956e-38 330 220
0.014677152 0.76099998 0.026685731 1.4842956e-38 331 220
0.016011439 0.76099998 0.026685731 1.5392875e-38 332 220
0.017345725 0.76099998 0.026685731 1.5762018e-38 333 220
0.018680012 0.76099998 0.026685731 1.6404491e-38 334 220
0.020014299 0.76099998 0.026685731 1.6312295e-38 335 220
0.021348584 0.76099998 0.026685731 1.6311927e-38 336 220
0.022682872 0.76099998 0.026685731 1.621973e-38 337 220
0.024017159 0.76099998 0.026685731 1.6127178e-38 338 220
0.025351444 0.76099998 0.026685731 1.6127178e-38 339 220
0.0267208 0.76200002 0.0267208 1.5666926e-38 340 220
0.028056841 0.76200002 0.0267208 1.5482895e-38 341 220
0.029392879 0.76200002 0.0267208 1.5388557e-38 342 220
0.030890226 0.76599997 0.026861066 1.5388557e-38 343 220
0.03227536 0.76700002 0.026896132 1.492868e-38 344 220
0.033620168 0.76700002 0.026896132 1.492868e-38 345 220
0.035056144 0.76899999 0.026966266 1.4559935e-38 346 220
0.036593821 0.773 0.027106533 1.4744328e-38 347 220
0.037949149 0.773 0.027106533 1.5484473e-38 348 220
-0.029740039 0.77100003 0.02568458 1.5394738e-38 298 221
-0.028388219 0.77100003 0.02568458 1.5394738e-38 299 221
-0.026966266 0.76899999 0.025617953 1.5488335e-38 300 221
-0.025617953 0.76899999 0.025617953 1.5857116e-38 301 221
-0.024206521 0.76700002 0.025551327 1.585925e-38 302 221
-0.022831906 0.76599997 0.025518013 1.5767053e-38 303 221
-0.021488851 0.76599997 0.025518013 1.6223694e-38 304 221
-0.020145798 0.76599997 0.025518013 1.5947106e-38 305 221
-0.018753653 0.764 0.025451386 1.5854186e-38 306 221
-0.017414106 0.764 0.025451386 1.576199e-38 307 221
-0.016074561 0.764 0.025451386 1.5669074e-38 308 221
-0.014735013 0.764 0.025451386 1.5300655e-38 309 221
-0.013395466 0.764 0.025451386 1.4748924e-38 310 221
-0.01202436 0.76200002 0.02538476 1.4287953e-38 311 221
-0.01068832 0.76200002 0.02538476 1.4560231e-38 312 221
-0.0093522798 0.76200002 0.02538476 1.3822677e-38 313 221
-0.0080372803 0.764 0.025451386 1.2442635e-38 314 221
-0.0066801999 0.76200002 0.02538476 1.0414361e-38 315 221
-0.0053441599 0.76200002 0.02538476 1.004379e-38 316 221
-0.0040081199 0.76200002 0.02538476 9.8594015e-39 317 221
-0.00267208 0.76200002 0.02538476 9.5817426e-39 318 221
-0.00133604 0.76200002 0.02538476 8.936383e-39 319 221
0 0.76599997 0.025518013 8.5640187e-39 320 221
0.0013448066 0.76700002 0.025551327 8.4718245e-39 321 221
0.0026896133 0.76700002 0.025551327 6.4539547e-39 322 221
0.00403442 0.76700002 0.025551327 8.8510159e-39 323 221
0.0053722127 0.76599997 0.025518013 1.1890575e-38 324 221
0.006697733 0.764 0.025451386 1.3273868e-38 325 221
0.0080372803 0.764 0.025451386 1.3919573e-38 326 221
0.0093522798 0.76200002 0.02538476 1.4380192e-38 327 221
0.01068832 0.76200002 0.02538476 1.4656056e-38 328 221
0.01202436 0.76200002 0.02538476 1.4840447e-38 329 221
0.013342866 0.76099998 0.025351444 1.4840453e-38 330 221
0.014677152 0.76099998 0.025351444 1.4932648e-38 331 221
0.016011439 0.76099998 0.025351444 1.5208507e-38 332 221
0.017345725 0.76099998 0.025351444 1.5393258e-38 333 221
0.01863092 0.759 0.025284819 1.5760573e-38 334 221
0.0199617 0.759 0.025284819 1.5852769e-38 335 221
0.021348584 0.76099998 0.025351444 1.6037138e-38 336 221
0.022682872 0.76099998 0.025351444 1.5852386e-38 337 221
0.024017159 0.76099998 0.025351444 1.5943863e-38 338 221
0.025351444 0.76099998 0.025351444 1.5759473e-38 339 221
0.0267208 0.76200002 0.02538476 1.5849874e-38 340 221
0.028056841 0.76200002 0.02538476 1.557365e-38 341 221
0.029392879 0.76200002 0.02538476 1.5204879e-38 342 221
0.030809574 0.764 0.025451386 1.5204879e-38 343 221
0.03227536 0.76700002 0.025551327 1.4928677e-38 344 221
0.033620168 0.76700002 0.025551327 1.4928677e-38 345 221
0.035056144 0.76899999 0.025617953 1.4468819e-38 346 221
0.036404461 0.76899999 0.025617953 1.4837242e-38 347 221
0.03775277 0.76899999 0.025617953 1.5300079e-38 348 221
-0.029740039 0.77100003 0.02433276 1.5670949e-38 298 222
-0.028314579 0.76899999 0.024269639 1.5486918e-38 299 222
-0.026966266 0.76899999 0.024269639 1.5671985e-38 300 222
-0.025551327 0.76700002 0.024206521 1.6040766e-38 301 222
-0.024174958 0.76599997 0.024174958 1.6042548e-38 302 222
-0.022831906 0.76599997 0.024174958 1.5950353e-38 303 222
-0.021488851 0.76599997 0.024174958 1.6407362e-38 304 222
-0.020093199 0.764 0.024111839 1.6130775e-38 305 222
-0.018753653 0.764 0.024111839 1.6039286e-38 306 222
-0.017414106 0.764 0.024111839 1.5762343e-38 307 222
-0.016074561 0.764 0.024111839 1.566979e-38 308 222
-0.014735013 0.764 0.024111839 1.5208819e-38 309 222
-0.0133604 0.76200002 0.02404872 1.4839683e-38 310 222
-0.01202436 0.76200002 0.02404872 1.4563101e-38 311 222
-0.01068832 0.76200002 0.02404872 1.4377277e-38 312 222
-0.0093522798 0.76200002 0.02404872 1.3916306e-38 313 222
-0.0080162399 0.76200002 0.02404872 1.2718857e-38 314 222
-0.0066801999 0.76200002 0.02404872 1.0506555e-38 315 222
-0.0053371461 0.76099998 0.024017159 9.9523132e-39 316 222
-0.0040028598 0.76099998 0.024017159 1.0413284e-38 317 222
-0.0026685731 0.76099998 0.024017159 1.0044868e-38 318 222
-0.0013342865 0.76099998 0.024017159 9.583895e-39 319 222
0 0.76099998 0.024017159 8.9385354e-39 320 222
0.00133604 0.76200002 0.02404872 9.6760906e-39 321 222
0.00267208 0.76200002 0.02404872 1.0786751e-38 322 222
0.0040081199 0.76200002 0.02404872 1.2446273e-38 323 222
0.0053441599 0.76200002 0.02404872 1.41029e-38 324 222
0.0066801999 0.76200002 0.02404872 1.474827e-38 325 222
0.0080162399 0.76200002 0.02404872 1.5299974e-38 326 222
0.0093400059 0.76099998 0.024017159 1.5023747e-38 327 222
0.010674292 0.76099998 0.024017159 1.5116273e-38 328 222
0.012008579 0.76099998 0.024017159 1.5116273e-38 329 222
0.013342866 0.76099998 0.024017159 1.5115917e-38 330 222
0.014638579 0.759 0.023954039 1.5115917e-38 331 222
0.015969358 0.759 0.023954039 1.5483979e-38 332 222
0.017300138 0.759 0.023954039 1.5576175e-38 333 222
0.01863092 0.759 0.023954039 1.5485765e-38 334 222
0.0199617 0.759 0.023954039 1.5485765e-38 335 222
0.02129248 0.759 0.023954039 1.5943863e-38 336 222
0.022682872 0.76099998 0.024017159 1.5943863e-38 337 222
0.024017159 0.76099998 0.024017159 1.5851673e-38 338 222
0.025351444 0.76099998 0.024017159 1.5759119e-38 339 222
0.0267208 0.76200002 0.02404872 1.5665851e-38 340 222
0.028056841 0.76200002 0.02404872 1.5573654e-38 341 222
0.029392879 0.76200002 0.02404872 1.5205595e-38 342 222
0.030809574 0.764 0.024111839 1.5113399e-38 343 222
0.032233275 0.76599997 0.024174958 1.5113052e-38 344 222
0.033576332 0.76599997 0.024174958 1.5113052e-38 345 222
0.034964975 0.76700002 0.024206521 1.4652481e-38 346 222
0.036404461 0.76899999 0.024269639 1.5113459e-38 347 222
0.03775277 0.76899999 0.024269639 1.5390474e-38 348 222
-0.02966289 0.76899999 0.022921326 1.5763132e-38 298 223
-0.028314579 0.76899999 0.022921326 1.5670578e-38 299 223
-0.026966266 0.76899999 0.022921326 1.5856005e-38 300 223
-0.025518013 0.76599997 0.022831906 1.6040397e-38 301 223
-0.024174958 0.76599997 0.022831906 1.6134018e-38 302 223
-0.022772292 0.764 0.022772292 1.6226214e-38 303 223
-0.021432746 0.764 0.022772292 1.6408794e-38 304 223
-0.020093199 0.764 0.022772292 1.6131847e-38 305 223
-0.018753653 0.764 0.022772292 1.631515e-38 306 223
-0.01736852 0.76200002 0.02271268 1.5946732e-38 307 223
-0.01603248 0.76200002 0.02271268 1.612825e-38 308 223
-0.01469644 0.76200002 0.02271268 1.5667638e-38 309 223
-0.0133604 0.76200002 0.02271268 1.5207743e-38 310 223
-0.012008579 0.76099998 0.022682872 1.4838966e-38 311 223
-0.010674292 0.76099998 0.022682872 1.4561666e-38 312 223
-0.0093400059 0.76099998 0.022682872 1.4377277e-38 313 223
-0.0080057196 0.76099998 0.022682872 1.3547171e-38 314 223
-0.0066538998 0.759 0.02262326 1.1887674e-38 315 223
-0.0053090933 0.75700003 0.022563647 1.1152995e-38 316 223
-0.0039712996 0.755 0.022504034 1.2259341e-38 317 223
-0.0026475333 0.755 0.022504034 1.2627424e-38 318 223
-0.0013237667 0.755 0.022504034 1.2627424e-38 319 223
0 0.755 0.022504034 1.2533443e-38 320 223
0.00133078 0.759 0.02262326 1.2902585e-38 321 223
0.0026545466 0.75700003 0.022563647 1.3550822e-38 322 223
0.0039818203 0.75700003 0.022563647 1.4103996e-38 323 223
0.0053371461 0.76099998 0.022682872 1.4748607e-38 324 223
0.0066714329 0.76099998 0.022682872 1.4932999e-38 325 223
0.0080057196 0.76099998 0.022682872 1.5576172e-38 326 223
0.0093400059 0.76099998 0.022682872 1.5299946e-38 327 223
0.01064624 0.759 0.02262326 1.5576879e-38 328 223
0.01197702 0.759 0.02262326 1.5484326e-38 329 223
0.0133078 0.759 0.02262326 1.5209178e-38 330 223
0.014600007 0.75700003 0.022563647 1.5209178e-38 331 223
0.015927281 0.75700003 0.022563647 1.5208819e-38 332 223
0.017254554 0.75700003 0.022563647 1.5301015e-38 333 223
0.018581826 0.75700003 0.022563647 1.5484327e-38 334 223
0.0199617 0.759 0.02262326 1.5576881e-38 335 223
0.02129248 0.759 0.02262326 1.5576163e-38 336 223
0.022682872 0.76099998 0.022682872 1.5668358e-38 337 223
0.024017159 0.76099998 0.022682872 1.5759122e-38 338 223
0.025351444 0.76099998 0.022682872 1.5666926e-38 339 223
0.0267208 0.76200002 0.02271268 1.5573654e-38 340 223
0.028056841 0.76200002 0.02271268 1.5481459e-38 341 223
0.029392879 0.76200002 0.02271268 1.5205951e-38 342 223
0.030809574 0.764 0.022772292 1.5113755e-38 343 223
0.032149121 0.764 0.022772292 1.5113049e-38 344 223
0.033576332 0.76599997 0.022831906 1.5113049e-38 345 223
0.034964975 0.76700002 0.022861714 1.4745033e-38 346 223
0.036309779 0.76700002 0.022861714 1.5205652e-38 347 223
0.037654586 0.76700002 0.022861714 1.548195e-38 348 223
-0.029585747 0.76700002 0.021516906 1.5946795e-38 298 224
-0.02824094 0.76700002 0.021516906 1.5854599e-38 299 224
-0.026896132 0.76700002 0.021516906 1.5856005e-38 300 224
-0.025518013 0.76599997 0.021488851 1.6040397e-38 301 224
-0.024111839 0.764 0.021432746 1.6226214e-38 302 224
-0.022772292 0.764 0.021432746 1.6226214e-38 303 224
-0.021432746 0.764 0.021432746 1.6408794e-38 304 224
-0.020093199 0.764 0.021432746 1.6131847e-38 305 224
-0.01870456 0.76200002 0.02137664 1.6407703e-38 306 224
-0.01736852 0.76200002 0.02137664 1.6223314e-38 307 224
-0.01603248 0.76200002 0.02137664 1.6129685e-38 308 224
-0.01469644 0.76200002 0.02137664 1.5852744e-38 309 224
-0.013342866 0.76099998 0.021348584 1.5667997e-38 310 224
-0.012008579 0.76099998 0.021348584 1.529922e-38 311 224
-0.010674292 0.76099998 0.021348584 1.4655295e-38 312 224
-0.0093400059 0.76099998 0.021348584 1.4655295e-38 313 224
-0.0079846792 0.759 0.02129248 1.4194324e-38 314 224
-0.0066363667 0.75700003 0.021236373 1.3087634e-38 315 224
-0.0053090933 0.75700003 0.021236373 1.281285e-38 316 224
-0.0039712996 0.755 0.021180267 1.3458219e-38 317 224
-0.0026475333 0.755 0.021180267 1.3919217e-38 318 224
-0.0013237667 0.755 0.021180267 1.4195802e-38 319 224
0 0.755 0.021180267 1.4469875e-38 320 224
0.0013237667 0.755 0.021180267 1.502269e-38 321 224
0.0026475333 0.755 0.021180267 1.4841522e-38 322 224
0.0039712996 0.755 0.021180267 1.4841522e-38 323 224
0.0053090933 0.75700003 0.021236373 1.5300667e-38 324 224
0.0066363667 0.75700003 0.021236373 1.5300667e-38 325 224
0.0079636406 0.75700003 0.021236373 1.5852026e-38 326 224
0.0092909131 0.75700003 0.021236373 1.5944579e-38 327 224
0.010590133 0.755 0.021180267 1.5945655e-38 328 224
0.011913899 0.755 0.021180267 1.5945655e-38 329 224
0.013272733 0.75700003 0.021236373 1.5669073e-38 330 224
0.014600007 0.75700003 0.021236373 1.5669073e-38 331 224
0.015927281 0.75700003 0.021236373 1.5484326e-38 332 224
0.017254554 0.75700003 0.021236373 1.5484326e-38 333 224
0.018581826 0.75700003 0.021236373 1.5484684e-38 334 224
0.019909101 0.75700003 0.021236373 1.5484684e-38 335 224
0.02129248 0.759 0.02129248 1.5576163e-38 336 224
0.02262326 0.759 0.02129248 1.5576163e-38 337 224
0.023954039 0.759 0.02129248 1.5666923e-38 338 224
0.025351444 0.76099998 0.021348584 1.5482892e-38 339 224
0.026685731 0.76099998 0.021348584 1.5298143e-38 340 224
0.028056841 0.76200002 0.02137664 1.5298143e-38 341 224
0.029392879 0.76200002 0.02137664 1.5206314e-38 342 224
0.030728921 0.76200002 0.02137664 1.5022282e-38 343 224
0.032149121 0.764 0.021432746 1.4929383e-38 344 224
0.033488665 0.764 0.021432746 1.4837188e-38 345 224
0.034919381 0.76599997 0.021488851 1.474468e-38 346 224
